73.52 71.62 77.16 83.48 96.03 97.24 77.43 91.23 109.83 115.17 118.99 121.4 108.93 75.94 108.15 128.01 144.03 157.35 165.81 164.27 153.45 127.9 117.7 108.77 108.45 127.89 136.28 147.05 140.36 146.53 141.66 134.57 125.14 104.94 119.23 139.77 154.1 168.63 181.8 173.71 159.35 136.56 138.09 145.64 134.31 139.56 158.42 178.82 183.62 188.65 194.96 201.83 212.39 210.34 183.17 163.91 176.19 167.9 147.65 129.65 120.33 110.75 114.21 115.2 117.52 125.19 131.12 127.93 128.0 134.04 147.63 155.09 152.99 149.4 155.54 163.41 152.74 157.36 170.4 206.87 233.59 224.17 202.17 206.67 234.72 257.56 249.95 239.19 214.4 219.2 233.58 254.26 239.74 221.09 215.94 195.06 192.85 202.15 215.1 237.34 234.88 237.6 251.9 244.97 255.15 267.02 263.95 272.47 285.33 268.09 259.94 238.69 221.39 187.43 174.73 172.76 180.7 181.13 181.57 187.74 204.61 219.69 217.31 205.71 201.16 206.68 199.82 204.45 206.42 208.17 214.49 220.31 226.37 233.63 241.59 264.51 281.74 303.46 277.43 282.71 287.72 298.63 297.74 285.03 315.72 343.22 312.17 275.02 254.7 246.27 252.85 277.17 247.51 249.33 252.76 267.01 285.4 301.58 358.17 322.12 345.63 344.61 315.65 318.05 313.75 300.62 291.92 315.3 329.62 302.43 304.64 319.5 326.27 336.86 374.58 422.24 437.19 364.84 379.42 406.03 407.19 377.31 357.87 335.04 306.61 300.21 306.63 307.63 322.74 354.74 330.93 309.46 290.49 275.55 280.23 289.06 296.51 306.9 323.74 354.54 361.77 361.06 326.0 313.18 314.72 343.01 319.67 316.55 345.63 306.42 304.56 304.01 306.83 325.44 329.49 323.49 321.12 334.13 341.57 331.51 332.36 339.72 356.75 360.95 361.09 366.14 369.26 340.48 332.67 330.53 334.39 338.01 342.84 351.08 351.09 358.15 376.54 378.2 406.35 414.79 396.74 382.48 385.81 391.54 399.31 406.82 412.27 424.15 441.88 447.48 428.71 425.19 427.53 439.14 450.84 459.64 478.31 487.75 488.8 492.09 462.65 481.17 495.45 461.76 467.66 505.11 473.19 465.08 450.2
71.53 64.86 76.67 85.41 89.04 84.79 66.03 95.07 107.41 112.56 115.43 115.2 111.51 71.34 88.9 117.49 143.16 151.79 157.15 160.08 162.57 154.3 130.48 105.76 103.77 112.7 121.4 130.03 127.71 133.7 134.34 127.21 100.44 102.27 124.09 149.08 169.16 165.46 170.97 174.57 153.51 132.54 125.42 132.1 126.82 135.7 157.62 169.33 175.1 180.87 189.69 194.53 203.29 200.39 195.63 178.35 182.97 173.44 150.45 137.03 124.0 110.54 112.51 115.37 118.24 121.29 121.93 123.27 125.51 127.86 130.23 132.73 134.76 142.02 151.32 147.44 149.68 166.39 187.66 204.34 203.96 195.78 195.79 213.29 238.04 243.22 238.95 227.26 210.42 206.68 226.02 233.44 233.45 247.67 221.63 202.83 188.32 188.43 212.69 218.18 220.84 240.58 226.95 232.12 252.19 245.88 247.12 248.42 260.56 274.49 275.03 268.03 232.49 192.81 178.07 170.75 176.18 179.79 186.44 210.03 220.15 222.36 211.76 203.89 194.78 203.79 196.61 201.55 206.07 209.05 213.51 217.68 223.62 229.98 237.63 247.3 263.27 264.49 264.84 295.58 273.14 273.78 280.24 277.11 319.06 335.1 306.92 273.86 254.94 243.48 250.02 242.82 244.74 252.71 268.18 272.06 286.67 323.13 362.57 383.51 375.17 340.86 308.43 300.14 311.78 309.52 287.57 304.78 300.8 297.21 308.39 307.04 316.14 335.33 379.94 415.84 409.7 349.12 340.8 364.3 400.39 411.04 379.26 358.99 329.31 295.31 292.49 298.82 333.94 345.47 335.89 297.45 277.74 271.25 301.96 327.39 325.91 313.9 345.77 360.5 347.17 328.45 335.19 299.76 323.05 346.01 309.29 309.16 330.49 297.75 294.41 299.64 315.23 319.21 314.88 310.16 319.89 336.45 318.18 322.63 333.17 330.23 328.96 331.86 340.02 350.62 359.54 382.12 367.39 333.99 334.29 336.53 341.35 346.6 351.91 352.78 356.63 364.75 375.11 380.75 382.46 401.99 411.38 394.2 400.44 416.21 422.1 436.03 429.21 437.34 421.63 419.98 422.97 426.26 436.61 451.71 471.6 462.29 472.8 479.54 454.87 451.56 452.35 457.18 500.07 500.08 446.98 436.14 435.56
59.82 58.9 66.71 76.04 79.49 54.08 57.54 93.0 99.99 106.34 110.7 110.06 103.53 68.7 66.53 113.38 132.6 146.76 151.14 152.86 153.28 151.78 146.65 121.5 98.95 97.2 105.27 116.7 120.04 125.73 123.4 113.5 98.28 106.35 126.73 156.17 166.73 152.09 146.62 158.71 151.93 133.55 118.82 113.71 119.33 124.99 140.43 152.1 163.97 182.09 194.69 192.6 192.51 181.13 180.53 183.8 185.76 169.63 159.98 156.6 125.79 109.44 112.32 115.26 116.64 117.58 122.0 124.59 127.33 129.74 131.76 135.29 135.75 138.91 142.38 144.92 149.8 172.04 184.06 184.64 180.61 183.54 196.72 222.36 232.32 223.19 222.13 210.35 199.56 203.83 215.0 222.33 236.41 248.83 212.17 195.41 187.24 185.76 196.83 205.96 214.9 223.64 217.39 230.55 235.26 238.98 228.87 237.36 244.54 250.06 265.14 244.1 218.18 198.78 180.95 168.8 170.38 171.25 172.33 176.01 180.17 183.23 185.97 188.44 191.42 194.65 195.69 201.33 204.13 206.32 211.1 216.66 221.64 221.31 228.58 239.59 247.34 250.2 258.05 262.35 262.02 281.96 272.72 267.34 294.37 307.79 312.56 266.66 249.21 239.21 237.4 239.48 247.18 262.01 278.65 296.92 313.85 352.92 386.33 378.37 370.78 328.17 313.95 293.9 291.8 295.63 283.18 288.03 289.17 291.67 298.05 302.8 309.31 319.23 353.8 389.17 406.25 383.53 327.68 343.17 397.04 422.64 376.88 348.52 329.67 319.76 292.3 315.43 356.75 326.03 307.42 304.5 267.21 271.24 298.57 325.84 332.4 352.64 336.5 354.74 350.29 309.21 302.83 294.08 340.3 345.26 302.91 305.09 311.41 286.98 291.35 289.12 292.16 303.99 305.53 303.05 305.48 322.49 314.98 316.13 319.34 324.29 327.84 341.95 354.13 381.14 399.51 405.38 378.22 357.82 346.07 338.14 341.17 343.51 346.1 348.99 351.75 358.4 362.37 365.6 374.7 380.87 391.45 397.17 407.69 416.02 424.65 419.6 415.37 413.17 413.29 414.99 421.89 427.66 445.03 448.53 449.78 449.7 472.59 459.58 441.68 445.76 449.78 485.03 500.08 429.79 428.26 436.37 482.32
56.12 54.05 49.47 61.67 37.64 44.54 74.44 84.76 90.87 96.07 100.41 98.22 92.53 75.91 63.2 95.28 120.35 136.96 141.91 141.96 139.89 134.96 139.06 136.84 112.55 91.36 100.85 110.58 115.04 117.03 112.17 98.05 98.15 109.09 124.31 144.28 156.34 156.62 133.38 145.36 130.27 123.56 113.18 108.14 115.47 130.29 157.33 165.27 178.96 189.24 184.6 176.91 177.6 166.61 163.07 170.48 181.82 182.83 169.78 146.99 110.58 107.51 111.1 113.34 115.23 116.49 121.04 126.43 132.73 132.08 133.23 143.29 147.12 148.72 144.02 144.61 151.82 163.8 170.43 169.83 174.65 182.14 199.64 223.65 214.8 206.06 209.55 191.03 195.73 218.9 220.87 227.35 247.05 243.27 214.32 199.91 184.49 182.92 193.28 216.35 224.59 207.31 205.31 216.79 239.07 228.6 216.94 222.85 233.46 275.5 283.39 250.67 207.09 192.89 180.84 167.06 172.55 176.11 173.41 175.15 188.48 190.43 193.83 196.34 204.81 213.94 211.95 210.81 204.58 204.69 206.63 209.46 217.01 213.03 223.58 239.77 237.16 238.9 242.44 248.71 258.48 270.88 273.41 257.47 269.95 281.51 296.56 282.66 247.97 234.93 234.21 246.82 255.42 272.63 307.45 309.66 345.28 360.04 369.31 360.63 353.18 341.13 309.34 301.02 290.16 284.4 278.14 282.47 288.4 299.77 315.79 320.9 312.97 316.4 340.57 369.62 363.95 374.63 317.4 345.58 381.19 403.92 387.67 356.79 316.74 297.13 292.02 318.39 355.16 322.91 288.62 279.21 264.85 279.19 312.61 328.19 308.35 312.84 317.34 351.77 340.73 317.98 295.58 290.47 329.63 322.13 294.14 307.29 280.84 280.97 283.53 287.13 292.67 295.99 299.89 303.04 304.23 306.21 309.81 315.09 337.66 346.99 363.31 386.03 382.33 385.16 376.56 385.66 375.55 361.19 350.6 342.82 350.37 344.37 346.6 349.08 353.26 354.65 357.57 359.87 370.0 375.14 376.28 381.29 390.54 398.23 404.0 400.4 399.74 406.69 409.4 407.93 409.26 412.3 418.82 430.59 434.04 437.23 440.39 435.18 438.62 469.84 461.57 464.64 442.73 424.01 443.35 463.88 530.45
31.25 46.91 36.05 36.06 36.46 36.86 37.83 39.59 77.14 86.87 92.96 85.91 78.61 74.05 57.13 80.9 99.91 93.53 124.48 125.85 119.01 119.71 121.99 119.03 84.69 86.22 111.47 106.75 104.4 110.06 103.3 94.83 97.9 113.49 132.31 144.91 133.03 132.5 122.63 130.64 117.89 111.49 103.01 105.67 126.58 149.33 166.2 174.59 182.0 181.81 168.62 161.39 161.2 151.14 151.98 162.32 171.57 170.2 175.51 167.02 138.28 104.78 107.96 112.09 114.63 117.04 121.95 130.24 139.33 135.92 135.26 141.31 153.85 155.53 153.98 145.64 149.52 154.46 160.01 166.14 171.21 181.71 199.5 209.48 205.84 191.22 182.0 185.41 215.17 232.72 245.97 242.86 246.35 254.18 226.28 210.46 191.62 177.99 183.96 205.3 223.89 197.33 196.19 206.62 225.28 204.59 209.48 250.86 278.59 297.34 294.8 236.28 215.9 186.38 178.17 164.87 174.56 182.04 198.9 200.11 211.14 206.28 233.22 228.24 217.4 226.86 231.31 230.82 210.49 204.83 205.63 208.11 207.03 207.31 222.96 230.24 227.66 229.64 230.79 234.79 246.86 266.86 268.24 250.25 244.02 256.99 267.81 268.66 242.07 231.17 233.0 243.73 254.18 268.16 289.53 313.25 332.83 338.63 340.69 329.96 345.92 374.45 324.33 295.35 287.2 280.02 273.24 275.17 289.18 315.1 336.3 329.72 315.43 326.76 349.07 360.51 346.38 331.73 307.84 307.26 353.09 397.48 391.0 358.03 332.42 310.24 285.7 282.27 329.61 334.93 277.43 268.72 262.88 298.45 329.02 288.81 289.35 300.0 334.9 367.06 361.07 355.34 324.11 287.03 319.22 321.35 290.98 278.51 279.07 291.88 287.51 292.51 302.8 304.0 339.2 343.61 340.67 338.59 329.53 337.23 373.94 374.24 378.02 370.21 359.26 363.48 369.57 394.04 392.3 376.92 357.61 351.35 353.59 367.71 368.04 375.31 365.59 365.13 375.56 362.96 365.91 367.61 370.5 373.91 378.01 380.11 383.65 387.73 391.99 401.53 403.11 404.88 408.28 411.31 413.92 417.63 421.72 426.08 430.11 433.01 455.86 470.6 445.05 436.24 420.08 423.4 496.3 501.34 527.97
31.09 31.9 34.81 37.23 41.08 41.21 39.6 39.7 55.25 76.4 86.56 79.22 57.76 53.42 57.0 55.18 56.31 61.19 82.38 86.58 94.68 102.24 103.42 92.79 80.03 94.97 105.69 95.1 94.55 89.18 89.51 91.1 97.16 112.87 129.14 118.1 113.51 113.7 112.12 117.27 103.32 96.18 99.24 119.93 141.64 152.25 162.93 168.0 170.44 167.59 156.22 149.63 148.34 137.27 143.09 149.36 157.09 160.41 169.05 159.85 154.97 104.18 103.62 110.79 112.47 114.44 116.69 131.01 146.45 154.29 158.57 150.55 157.55 167.46 167.73 157.0 153.71 155.94 158.25 164.66 167.87 173.05 185.28 202.03 185.34 173.02 176.85 198.74 231.09 241.04 242.92 258.59 261.33 245.55 235.48 236.57 199.25 173.99 171.95 188.6 212.9 195.52 186.49 203.18 193.82 197.98 221.82 238.81 262.67 271.38 282.24 229.99 196.9 181.24 161.07 162.1 183.7 202.87 240.61 251.21 251.68 245.0 261.79 271.06 254.21 246.82 226.37 213.27 217.56 211.08 208.96 212.74 203.35 204.16 219.6 219.8 221.91 220.04 225.06 228.2 232.85 240.99 252.33 275.67 238.02 232.95 241.09 240.65 229.24 227.2 241.99 258.49 261.2 268.82 283.0 304.02 319.41 322.45 315.65 314.91 344.34 353.33 325.88 299.98 279.67 275.08 269.39 288.76 316.17 341.58 361.79 348.73 328.01 343.06 381.54 367.52 344.9 331.94 314.75 297.52 334.88 368.78 375.91 367.39 343.65 312.58 276.89 276.9 311.45 293.13 282.62 260.7 260.77 299.09 285.08 285.09 302.68 336.65 338.78 354.2 343.05 346.43 329.78 283.28 279.67 297.06 286.71 274.18 277.55 299.34 311.69 317.95 302.81 303.21 303.59 304.64 307.57 312.2 350.79 359.38 349.21 366.28 355.39 341.89 348.71 364.06 375.72 390.26 400.65 385.29 365.93 353.55 358.08 381.29 400.44 404.12 385.94 385.48 396.27 391.17 387.35 375.47 375.82 378.76 384.48 385.34 388.76 395.76 399.55 405.4 416.48 424.46 444.13 452.49 443.68 453.99 446.1 443.46 447.49 460.54 475.42 477.69 456.46 425.94 416.84 471.75 514.99 569.09 573.68
34.2 33.24 35.0 38.49 46.25 54.72 45.78 42.04 42.19 42.83 43.71 45.26 46.66 48.16 48.9 49.73 51.32 54.03 57.65 67.01 74.05 76.16 95.28 77.72 74.57 79.11 82.11 82.74 82.57 87.15 88.8 93.74 98.38 118.27 94.42 93.77 96.62 101.79 102.9 100.23 88.49 92.09 107.98 115.25 136.06 135.2 149.81 159.68 163.43 157.37 148.13 143.42 139.94 130.4 125.25 141.66 151.86 156.42 161.88 151.68 143.11 125.87 102.86 101.58 109.75 111.38 113.66 123.84 138.72 157.43 165.53 163.09 168.73 180.46 182.06 176.84 164.89 161.72 169.36 181.06 174.66 172.73 188.35 177.08 164.48 168.91 183.16 197.93 210.97 223.81 234.72 253.39 241.84 229.83 249.22 236.66 202.8 182.54 170.06 177.42 201.51 199.32 181.85 192.08 188.02 200.54 212.11 254.66 273.64 250.24 272.73 216.23 189.97 180.45 158.85 165.77 198.51 245.28 282.97 298.79 277.15 265.9 280.15 294.3 276.1 261.15 240.18 210.87 206.34 217.27 220.41 213.39 196.16 199.74 211.2 215.15 213.85 215.91 218.8 220.92 226.98 227.68 240.1 261.43 253.55 228.18 226.91 220.37 221.79 225.09 262.05 285.52 303.55 304.07 305.06 319.41 324.54 306.02 297.4 314.81 337.76 329.58 316.08 291.23 275.35 264.46 267.79 295.19 319.05 347.52 367.38 349.01 344.23 363.91 391.09 378.98 352.58 330.52 325.72 295.43 316.77 335.92 365.29 371.41 325.48 294.65 267.33 281.78 310.93 272.72 257.27 257.8 264.25 267.54 270.18 286.56 312.06 314.63 329.03 359.1 343.04 323.31 336.09 300.52 276.53 284.65 278.22 269.53 283.22 297.04 332.82 341.54 322.2 334.02 333.66 340.46 312.61 312.7 316.28 321.18 325.94 331.57 338.81 341.79 362.12 373.17 390.73 401.26 394.66 380.55 372.98 362.22 362.61 380.24 393.57 416.0 411.93 413.04 415.16 411.59 405.71 394.29 389.7 404.54 398.72 391.44 402.83 407.54 410.89 413.64 422.47 450.87 463.98 472.14 468.47 474.22 470.8 474.62 475.98 475.33 475.08 471.67 437.06 416.27 413.02 449.16 522.5 577.29 571.42
34.4 34.48 35.61 59.31 83.8 86.27 61.05 47.48 42.43 42.44 46.41 48.91 51.78 54.41 52.88 54.15 55.46 54.35 54.64 55.27 63.64 65.97 68.06 68.99 73.0 71.67 76.03 77.63 74.06 81.71 91.29 103.82 95.02 85.36 82.0 81.03 86.44 92.71 97.62 92.45 85.29 100.92 90.17 96.07 111.85 114.36 143.3 145.41 153.54 154.69 147.02 139.24 132.27 117.18 113.2 127.37 144.05 150.39 157.99 148.08 142.48 133.41 122.36 101.57 100.51 108.91 109.69 121.49 140.62 152.82 160.75 171.2 178.94 174.19 179.24 184.49 184.49 170.46 174.92 182.89 174.81 165.77 186.56 180.37 160.16 169.98 184.78 203.55 220.04 233.06 228.46 232.75 227.16 214.71 235.6 230.04 209.53 191.62 168.62 167.35 190.12 197.55 180.6 181.01 185.64 194.35 213.61 237.37 261.52 234.15 258.31 204.66 186.6 173.77 156.03 186.03 215.34 267.53 302.96 284.43 267.73 247.56 262.58 275.5 282.08 271.15 255.18 228.85 201.59 196.25 210.86 204.14 195.12 204.21 206.82 209.32 207.32 209.36 210.23 218.25 220.98 217.97 220.1 233.55 227.84 217.55 219.79 220.31 222.31 266.37 298.32 321.61 326.76 308.6 310.03 318.6 308.02 298.53 285.09 318.72 312.35 311.06 303.69 286.14 265.96 258.79 277.12 304.66 332.36 364.48 354.57 340.03 356.33 374.12 377.42 382.29 378.97 356.86 338.44 295.42 280.45 306.67 371.26 361.41 309.1 272.14 261.98 303.44 282.92 262.47 254.8 258.72 263.52 267.73 277.78 289.73 300.9 326.7 348.67 341.91 358.0 312.18 337.79 323.04 272.27 269.03 268.68 268.48 294.09 305.8 331.99 355.85 347.92 357.5 372.77 359.74 377.61 354.87 340.92 344.93 335.5 341.07 362.75 371.8 393.97 385.49 405.31 416.87 402.93 395.61 380.04 366.64 366.24 378.35 402.39 407.21 394.21 391.95 391.96 402.79 418.69 409.73 413.7 420.89 419.42 401.12 414.35 420.73 432.86 434.44 434.83 449.92 454.43 459.14 471.76 467.92 463.88 466.94 471.95 471.45 470.79 461.47 422.07 408.29 411.47 429.12 499.17 550.94 518.08
38.72 37.87 40.6 85.04 106.13 146.8 98.7 50.14 48.7 48.23 48.7 49.2 64.94 63.99 61.1 73.36 76.69 62.44 59.28 56.08 61.17 61.67 61.84 61.85 61.86 62.15 72.27 75.68 72.01 69.66 71.5 86.93 80.16 78.54 78.49 77.35 79.53 84.12 86.59 81.5 82.7 86.28 84.83 84.7 90.29 102.14 127.15 124.98 145.38 150.95 147.98 142.12 133.6 111.3 99.95 109.36 118.71 129.73 136.54 145.66 144.16 138.22 130.75 114.32 99.69 106.35 107.81 119.0 144.57 157.04 164.39 172.34 170.28 166.1 170.96 178.83 175.23 172.42 169.44 168.35 163.48 156.41 160.42 175.23 154.87 171.28 191.1 208.72 220.46 211.05 208.25 212.59 212.88 201.77 216.38 228.69 204.11 188.77 177.13 165.49 174.7 172.02 174.09 177.88 202.49 199.82 210.59 252.94 241.25 219.36 251.54 193.97 176.22 154.98 155.59 192.45 241.62 284.28 288.45 276.14 254.33 221.57 228.68 239.99 275.55 287.34 260.27 237.55 207.08 193.84 195.47 194.69 193.73 198.19 203.99 208.72 202.13 205.89 206.7 213.19 225.49 214.75 208.09 218.52 209.92 215.43 220.91 244.12 255.05 279.42 272.49 287.77 313.45 286.5 296.46 305.57 288.54 284.29 275.64 309.65 295.25 292.17 279.5 254.16 255.95 257.8 282.86 301.05 335.62 348.56 332.62 329.91 354.1 367.62 356.62 362.89 376.89 364.4 339.74 316.9 278.55 269.96 330.57 363.54 324.65 256.62 258.71 303.24 261.92 252.54 254.7 275.36 274.88 270.64 275.97 295.35 328.3 338.25 322.75 334.15 355.12 300.52 308.99 329.51 306.07 266.0 267.9 267.96 276.38 294.85 299.52 300.37 331.85 337.17 342.92 347.83 378.19 373.77 371.31 379.8 376.67 348.72 362.37 389.45 421.42 415.54 415.76 409.18 400.92 392.33 386.22 372.3 384.34 404.29 405.16 392.85 377.19 383.07 406.17 406.3 400.56 403.61 415.58 423.95 428.6 413.19 426.89 445.16 431.9 436.53 443.37 444.5 441.18 449.74 470.17 464.2 459.36 459.92 463.04 467.2 463.59 440.42 415.85 404.69 427.04 431.51 463.35 459.7 470.8
96.82 74.05 100.28 133.16 130.65 171.36 151.56 80.27 65.57 84.09 88.69 98.65 103.05 112.82 79.64 99.29 111.0 81.54 69.93 77.4 78.31 78.95 70.35 73.79 75.64 62.92 64.29 66.44 68.01 68.74 72.13 72.14 72.56 73.91 74.47 75.47 76.52 77.81 79.04 79.96 81.34 82.85 83.12 83.8 85.08 96.7 103.87 115.16 141.65 145.65 147.12 140.43 115.64 107.39 94.56 90.37 102.37 113.66 115.67 133.36 137.41 137.73 130.98 98.41 98.44 104.91 105.39 111.62 133.38 150.99 159.71 166.89 160.49 159.37 167.93 171.76 160.54 161.71 165.31 157.91 150.28 146.32 154.15 147.82 150.81 169.81 187.99 209.38 205.25 191.74 188.44 197.57 197.49 189.91 200.95 216.96 218.38 212.78 178.32 163.79 162.53 170.6 174.53 193.34 220.31 234.63 229.14 230.19 219.95 206.41 209.78 189.0 165.92 152.89 170.62 191.57 238.2 271.09 263.5 259.16 241.43 209.58 214.65 235.02 249.34 264.67 282.12 258.34 214.08 192.88 184.77 183.6 185.72 195.68 200.07 204.24 196.95 200.92 204.34 207.44 221.18 215.95 205.56 208.65 206.65 240.26 262.6 297.82 275.75 259.38 256.48 283.87 293.43 270.65 283.08 290.2 274.74 284.32 266.81 297.33 282.95 273.47 260.94 251.17 257.57 274.11 301.06 321.6 316.7 322.36 313.98 322.95 345.63 349.42 335.09 340.53 355.77 361.67 350.82 330.97 304.03 266.25 264.47 332.19 316.12 255.01 261.92 298.27 260.39 250.19 254.66 266.05 286.51 303.89 281.32 284.74 306.55 314.04 314.05 326.13 332.96 292.96 286.66 333.8 301.98 259.87 262.08 272.39 276.69 285.38 293.95 303.09 307.79 314.49 319.92 343.88 345.62 346.17 356.99 371.06 389.42 377.91 393.65 412.84 419.12 405.15 397.96 403.72 391.07 384.11 381.99 382.37 399.65 401.34 388.96 371.22 373.7 376.22 381.64 390.55 400.55 419.32 425.84 426.79 426.8 439.76 441.27 428.14 422.51 428.82 433.62 438.06 440.06 469.47 473.87 461.61 454.65 455.9 459.46 462.59 452.35 419.13 401.45 402.92 415.52 446.64 438.77 444.57 486.8
136.98 121.01 160.79 163.56 156.78 180.6 175.17 138.51 98.17 110.68 166.56 164.25 141.34 134.39 104.14 146.57 152.45 104.6 108.55 106.55 112.13 85.65 92.23 85.47 94.62 100.48 88.19 94.07 85.24 79.0 77.47 77.57 83.62 81.0 74.78 75.23 76.3 77.74 79.85 80.72 81.04 81.36 82.06 82.55 83.52 84.85 88.93 98.12 113.8 131.76 133.54 109.37 96.25 90.04 86.04 85.69 87.7 96.24 103.12 113.15 121.51 129.57 126.05 98.29 98.25 101.98 103.61 109.3 139.15 151.54 157.46 157.3 153.68 155.85 162.01 152.73 149.21 160.45 170.9 158.29 142.68 138.55 142.36 142.7 150.44 164.15 180.73 196.89 186.94 174.7 180.47 184.56 187.57 179.87 196.33 194.82 212.58 206.45 185.69 160.83 161.31 165.7 174.38 193.34 221.48 219.6 207.45 210.52 202.07 194.5 201.82 170.29 148.52 149.0 180.1 229.41 269.89 268.13 246.16 243.18 223.48 196.62 196.19 210.1 226.01 250.46 275.14 258.38 238.31 213.55 194.2 183.59 183.58 193.33 194.38 189.88 192.77 200.54 207.15 206.69 217.02 218.9 204.53 203.41 201.8 224.51 245.75 284.42 265.47 242.39 240.8 258.89 271.51 254.53 262.46 260.56 261.75 256.41 258.27 281.97 266.72 255.33 247.42 249.09 270.88 295.72 318.82 314.71 299.15 302.6 298.96 312.12 328.53 323.85 319.75 334.62 334.87 339.83 344.93 344.02 301.55 290.61 260.52 256.19 302.48 252.95 289.21 292.41 255.42 247.19 254.24 295.12 311.0 321.38 311.75 295.17 295.18 300.24 314.2 322.28 308.2 305.3 277.78 311.82 299.43 257.28 257.29 291.32 316.85 340.49 336.06 340.05 353.76 338.77 321.2 325.34 332.26 362.01 374.05 379.36 373.01 386.94 404.17 402.28 397.22 385.07 387.09 388.13 378.33 378.56 373.58 381.36 383.81 381.88 378.22 365.45 368.39 375.37 418.43 425.56 419.9 448.04 428.49 418.82 443.52 442.23 425.44 416.28 415.18 427.47 450.59 431.56 447.96 469.89 466.06 454.92 450.16 452.08 454.92 450.35 424.64 409.13 399.31 411.82 415.46 425.94 438.55 476.51 497.79
159.23 162.25 165.18 170.11 170.8 165.9 169.64 168.3 159.63 146.54 173.87 159.84 159.24 157.87 132.29 164.98 192.23 164.0 149.86 151.06 137.99 128.23 109.39 119.72 103.84 163.94 143.52 132.97 94.09 83.72 82.89 82.73 88.57 93.32 80.0 75.64 75.98 76.38 79.32 80.6 78.8 80.71 81.11 81.46 82.37 83.54 84.35 85.29 91.9 112.4 98.32 86.87 85.45 85.19 84.99 85.21 86.05 87.48 88.9 93.67 107.23 108.65 111.82 98.09 98.04 99.86 110.78 126.17 137.5 151.11 160.8 152.54 149.22 154.81 154.89 134.93 145.18 163.26 170.2 152.34 143.52 133.88 133.39 137.34 153.77 173.67 191.56 192.3 171.55 165.74 177.89 173.05 179.68 170.17 175.45 182.77 203.44 205.3 182.73 159.45 158.66 161.76 178.26 202.97 219.84 202.73 192.94 197.3 196.18 186.67 209.78 170.22 146.04 146.58 193.29 241.75 240.6 250.55 226.61 233.94 214.73 200.94 186.36 211.7 237.85 255.1 262.94 265.54 246.78 224.16 201.81 185.35 181.67 184.95 190.81 185.83 194.04 206.87 204.27 197.45 216.76 211.87 204.65 200.0 197.54 211.33 241.67 259.05 239.7 232.27 227.55 236.68 240.28 239.1 245.05 249.71 250.37 249.25 253.84 255.43 241.04 242.84 245.15 260.92 288.3 308.47 309.53 302.29 283.15 280.53 291.28 317.17 313.83 302.77 311.12 320.62 315.07 321.81 328.19 324.48 331.88 314.46 288.31 253.95 252.76 250.55 289.55 291.35 243.99 244.75 262.96 287.25 337.95 350.46 335.54 338.24 336.47 330.69 329.69 308.7 295.92 307.2 267.5 292.43 256.62 257.27 280.05 293.74 311.49 338.98 348.68 343.76 343.29 344.31 351.98 353.6 332.93 338.25 344.4 352.02 364.32 388.69 402.36 394.03 381.51 375.75 370.64 369.07 378.07 386.6 365.32 376.15 369.84 365.61 359.93 362.49 387.71 411.66 418.61 408.93 417.54 438.46 412.32 415.17 436.09 426.99 414.1 409.12 413.93 431.86 424.48 426.62 454.7 463.3 456.89 449.5 446.83 445.47 448.73 417.08 408.8 401.28 396.79 416.11 454.14 456.96 475.9 477.59 473.48
159.2 163.39 167.11 170.32 169.19 159.68 159.64 159.59 159.57 159.56 159.58 159.58 159.57 159.86 147.95 175.18 205.12 220.53 191.86 181.38 171.55 160.16 136.52 153.73 131.39 194.57 204.7 157.15 113.25 93.35 87.07 109.24 107.67 108.96 85.76 80.97 76.42 76.64 77.21 77.85 78.37 79.2 79.67 80.24 81.52 82.54 83.35 84.1 84.93 89.17 86.08 85.0 84.88 84.86 84.87 85.05 85.56 85.96 87.52 90.11 91.4 93.92 97.27 97.58 98.03 97.66 113.19 127.85 135.94 145.43 154.5 146.13 141.0 158.42 121.74 125.47 159.91 171.47 171.48 162.73 154.35 133.68 129.31 143.54 154.39 169.58 190.5 184.44 156.93 157.82 171.47 166.11 171.35 162.74 166.88 180.71 200.67 192.52 195.09 176.05 156.79 158.16 172.11 186.67 200.8 189.77 182.46 178.84 183.75 177.86 202.23 177.74 144.27 147.4 173.93 213.46 210.96 234.93 207.9 235.79 210.85 190.86 173.74 210.82 228.6 236.81 254.14 260.89 264.07 239.16 223.33 208.82 181.66 181.21 179.5 181.64 194.94 210.68 192.83 193.01 212.37 205.35 201.05 195.04 195.29 208.7 228.62 246.82 221.92 219.03 215.85 208.25 209.81 214.49 226.69 235.68 240.61 241.01 242.92 237.24 239.48 246.87 259.71 274.64 296.77 298.97 288.64 288.64 260.86 269.97 302.03 314.07 307.86 290.25 305.15 302.57 299.69 306.91 309.87 308.28 316.67 330.28 309.48 275.25 249.25 246.76 282.89 278.1 241.17 245.41 305.57 324.99 356.03 390.54 374.33 376.07 374.26 341.93 316.21 310.5 289.17 277.06 260.61 256.0 256.01 260.65 298.92 300.34 312.99 329.15 318.41 323.09 326.84 332.37 340.55 345.75 342.89 348.03 344.99 362.17 379.57 382.28 382.9 378.75 371.5 361.16 361.17 366.73 389.78 382.03 358.39 356.36 351.74 354.69 358.36 397.79 411.48 418.02 397.34 401.02 429.55 419.4 402.36 428.52 414.59 417.72 400.02 401.84 422.76 428.87 420.19 433.25 454.07 459.94 455.9 449.91 443.74 442.98 425.15 408.54 403.35 394.23 395.5 425.88 441.47 448.65 467.44 459.69 465.45
157.46 162.46 166.78 171.02 170.66 159.69 159.58 159.59 159.58 159.57 159.58 159.59 159.99 178.01 168.73 182.37 218.96 237.3 241.36 239.34 213.69 189.13 165.44 183.36 170.64 193.48 240.29 191.62 147.46 104.16 120.93 138.29 134.55 111.75 88.38 82.79 79.66 78.47 78.27 78.98 79.03 79.31 79.61 80.21 81.26 82.08 82.71 83.32 83.99 84.0 84.53 84.8 84.83 84.85 84.88 85.5 85.57 86.6 87.17 89.17 91.39 93.26 94.03 94.91 95.7 97.06 111.87 116.13 127.2 136.84 140.78 134.34 134.35 142.13 117.46 140.59 164.71 158.2 165.43 159.31 142.42 122.95 124.07 158.67 165.8 166.44 171.58 175.78 155.61 149.36 166.25 158.45 174.21 155.64 159.34 175.52 177.94 182.07 199.79 177.78 152.52 155.86 165.96 178.54 176.05 175.11 191.15 166.45 161.38 168.27 182.38 169.25 143.12 150.19 168.81 193.39 188.48 225.3 190.3 217.37 203.98 173.6 169.98 212.43 213.63 232.54 237.89 246.83 256.24 249.06 236.94 213.18 193.27 180.94 177.49 179.08 195.56 200.77 183.58 196.58 204.05 197.37 196.99 194.1 195.47 210.08 227.05 226.68 218.26 202.66 205.87 208.06 209.36 215.54 219.18 223.14 227.45 231.43 233.58 236.03 242.88 256.24 282.42 276.97 286.48 292.02 272.55 270.11 252.66 277.43 296.65 292.29 287.8 279.99 291.62 289.41 285.16 287.19 304.79 289.8 303.28 305.8 316.43 291.19 255.29 243.29 241.7 239.0 239.01 304.65 333.84 354.42 361.15 353.22 374.9 340.76 353.06 349.42 307.07 287.94 282.32 267.91 258.58 255.45 272.09 275.97 286.26 317.73 336.29 308.64 314.57 366.75 374.44 364.4 374.81 365.75 358.74 358.25 370.81 383.13 379.4 379.34 366.31 363.28 349.42 351.82 361.28 363.37 362.86 341.41 343.47 347.14 351.73 376.49 391.38 393.37 406.32 389.49 390.61 422.19 417.9 413.71 400.36 400.41 404.9 401.58 395.64 414.98 422.09 414.59 418.1 453.42 455.95 458.3 455.67 446.62 437.59 429.76 409.31 400.62 396.23 391.94 416.86 429.23 460.42 445.01 450.15 450.11 466.05
155.24 160.34 164.89 170.12 168.93 159.57 159.57 159.58 159.59 159.58 159.59 159.6 159.88 190.96 193.98 198.55 218.51 235.09 240.41 243.97 251.76 225.17 196.54 216.53 228.92 226.82 214.65 166.45 122.16 119.73 163.08 166.27 138.41 102.21 95.92 112.12 98.49 82.21 79.3 79.58 80.09 79.71 79.95 80.77 81.54 82.08 82.49 82.9 83.42 83.96 84.72 84.8 84.93 85.08 84.9 85.2 85.6 86.1 86.26 87.29 89.01 91.11 92.09 94.0 93.91 95.7 97.76 99.97 112.11 122.71 114.39 125.19 136.49 128.58 108.95 138.48 146.83 135.66 137.07 140.41 132.65 120.49 120.66 148.21 150.34 143.51 158.28 155.51 147.07 144.74 155.08 154.02 152.24 149.44 157.04 170.39 169.76 187.61 198.18 174.94 150.33 148.7 156.78 172.12 163.81 171.9 178.47 159.31 156.47 159.03 172.22 160.34 140.27 146.48 159.15 168.78 179.09 187.76 179.39 210.54 186.03 163.83 166.36 208.24 196.62 216.69 219.27 227.66 228.2 241.11 250.85 236.95 214.49 195.75 173.93 171.96 183.1 179.86 181.15 195.64 200.58 193.04 187.61 190.59 202.25 208.41 207.71 196.57 198.24 200.87 224.82 258.72 251.32 242.87 232.7 243.01 229.16 231.32 233.13 253.92 249.85 270.43 284.67 267.13 268.64 283.13 272.85 255.29 245.56 274.59 279.27 274.08 267.72 272.85 279.82 275.87 275.14 279.41 290.91 276.25 282.99 286.52 297.52 305.86 284.97 255.64 238.28 233.92 248.13 288.47 295.68 312.64 330.64 316.77 340.38 316.83 321.11 329.82 311.69 285.67 270.71 267.04 255.45 255.28 282.28 311.33 326.13 320.63 321.13 300.7 348.95 370.6 348.75 382.31 377.13 386.66 390.84 382.94 391.64 370.66 361.07 378.2 353.62 340.88 341.94 348.65 330.42 340.0 340.22 340.23 351.65 369.37 390.46 400.57 398.38 388.65 399.8 384.03 418.78 401.0 400.41 389.44 391.57 399.91 429.68 390.27 393.42 404.14 422.86 409.69 421.62 431.15 453.72 456.0 455.33 439.7 432.29 424.11 397.06 391.91 388.42 390.65 423.26 454.07 456.93 444.21 436.77 440.77 463.3
151.27 156.18 161.15 166.53 167.56 159.56 159.57 159.58 159.59 159.59 159.6 159.61 163.93 190.83 203.17 210.43 220.9 229.74 234.38 240.47 247.22 252.92 254.75 265.48 272.03 260.85 209.45 153.83 135.86 185.56 201.92 169.89 113.65 107.86 136.15 134.33 102.58 91.49 86.73 83.5 80.38 80.75 80.46 81.06 81.65 82.15 82.5 82.87 83.31 83.76 84.08 84.59 85.07 85.61 86.11 86.11 86.14 86.15 86.21 86.95 91.1 92.94 92.27 92.29 92.31 93.68 95.18 96.22 98.5 102.35 108.47 121.59 130.85 117.13 105.78 113.34 125.72 123.26 126.19 140.36 127.16 119.43 119.32 141.9 130.26 135.24 170.08 163.37 148.4 136.93 146.88 148.05 144.14 143.07 162.26 176.37 159.52 192.65 175.25 160.09 154.96 146.14 144.69 156.68 156.36 163.2 156.92 161.1 149.5 153.45 155.3 147.83 137.61 147.01 152.46 173.88 159.15 164.81 172.66 191.57 197.79 159.4 168.85 185.92 176.64 189.6 199.63 207.89 208.34 212.29 229.57 238.7 238.78 212.33 189.09 169.77 170.24 175.99 190.83 197.31 198.87 191.62 184.94 185.49 202.77 201.96 197.81 194.88 198.74 237.77 262.06 294.07 305.01 291.85 246.34 255.74 272.31 275.76 274.89 278.0 260.66 270.18 285.6 266.54 255.11 261.55 258.12 246.94 239.68 264.63 258.78 254.95 259.66 275.63 275.07 265.24 266.99 275.05 290.63 267.54 272.82 274.11 281.3 293.16 287.5 271.2 248.44 231.99 238.0 267.89 277.36 279.43 291.75 293.16 307.63 300.12 298.91 300.64 311.38 289.67 265.78 260.23 254.01 255.27 286.88 291.28 298.99 297.16 286.2 294.72 307.55 319.8 333.65 352.2 354.45 359.32 364.22 385.08 363.61 354.5 347.05 351.28 343.14 332.72 337.31 325.86 328.5 331.3 334.54 340.37 370.46 397.47 404.48 398.57 379.05 381.48 376.62 380.61 397.83 383.05 383.93 387.32 420.03 407.05 400.64 385.87 395.29 416.42 400.06 402.99 415.2 436.73 450.61 453.09 453.23 427.91 428.01 408.26 390.42 385.64 385.51 435.79 440.18 449.74 450.25 451.43 435.17 432.42 445.99
146.5 151.75 156.33 161.48 163.94 159.55 159.56 159.57 159.58 159.58 160.13 165.0 184.44 200.23 205.38 212.84 220.85 224.78 229.0 234.36 240.84 247.91 255.74 266.36 279.18 268.73 218.69 180.35 186.9 232.22 186.83 136.73 126.94 177.85 172.42 127.2 122.44 113.92 103.44 94.72 102.03 94.21 85.05 81.41 81.61 82.48 82.49 82.83 83.35 83.76 84.13 84.54 85.02 85.53 85.99 86.47 87.14 89.0 90.0 90.11 91.69 92.86 93.69 93.54 92.47 93.17 94.63 95.7 96.63 97.84 102.38 107.73 117.91 112.48 104.13 113.18 123.67 119.13 122.72 134.71 131.77 122.22 118.65 120.76 124.33 159.53 165.68 157.11 151.65 131.82 135.24 140.75 135.66 138.76 153.6 158.93 151.85 176.02 173.0 167.79 161.52 143.25 142.34 149.38 154.89 145.04 146.72 144.88 143.58 147.17 143.63 134.76 135.58 140.94 146.5 152.21 151.96 169.63 162.81 176.84 171.25 154.49 155.53 179.0 166.29 176.64 197.37 193.08 190.7 197.93 207.08 211.87 214.85 214.03 201.21 168.67 166.66 180.41 188.22 192.62 191.09 188.5 183.33 184.42 196.33 193.41 191.72 190.91 218.81 235.54 248.2 272.18 295.92 294.46 271.53 264.13 271.44 290.12 290.16 281.14 268.08 267.9 279.01 272.35 249.69 240.83 237.46 231.12 234.77 243.92 242.55 249.16 257.73 273.37 260.55 256.68 267.94 289.95 288.71 262.25 258.91 260.62 266.52 280.31 269.42 253.9 244.2 231.45 242.96 249.36 256.4 264.61 273.73 280.39 288.26 291.32 282.68 280.02 281.7 272.23 265.93 256.29 245.48 248.92 254.79 260.6 267.55 274.96 282.51 318.38 323.79 333.69 339.57 331.72 335.31 340.21 337.33 339.77 343.9 338.85 335.34 333.87 331.96 323.48 323.49 325.29 348.53 350.39 359.17 371.58 391.16 399.38 390.19 384.19 371.15 368.0 373.09 382.44 377.83 378.8 406.41 414.34 418.14 411.71 380.45 383.57 400.87 392.19 396.61 421.38 436.36 444.2 446.44 448.73 446.23 416.22 431.61 405.73 388.68 382.71 385.46 438.85 441.33 444.89 445.43 446.74 441.57 425.51 430.87
140.58 145.02 150.85 155.96 159.31 160.68 159.64 160.61 163.22 173.9 181.81 186.48 193.15 196.63 201.92 208.51 213.88 217.75 223.22 228.91 234.14 241.85 248.88 257.97 270.38 267.17 250.29 230.33 233.63 215.56 165.45 151.78 153.66 215.64 222.54 168.72 147.26 132.15 119.01 105.33 111.25 109.41 86.72 88.04 90.69 89.51 82.78 82.84 83.47 83.82 84.22 84.51 84.96 85.37 85.79 86.31 86.32 89.0 90.1 91.13 94.0 93.38 94.75 94.52 94.15 93.86 94.62 96.2 96.63 97.84 98.32 98.39 98.48 99.61 102.07 103.58 108.13 111.82 122.53 131.83 127.42 120.35 113.49 120.42 142.51 146.98 130.42 137.05 129.83 128.39 124.65 127.37 131.77 138.62 146.25 144.96 141.19 150.91 157.68 160.11 162.69 158.96 139.69 143.42 145.31 137.57 136.29 134.91 138.15 134.78 138.02 133.08 134.51 136.0 136.28 140.09 142.38 148.37 149.13 165.83 162.46 150.75 146.6 167.43 158.47 178.62 175.14 180.81 168.44 170.69 183.36 187.13 187.88 192.09 198.51 205.61 164.68 172.65 193.78 189.84 184.15 185.15 181.91 184.53 186.88 188.01 188.29 187.81 199.57 212.77 227.21 234.93 255.93 278.31 304.71 301.46 274.57 274.58 288.54 269.83 263.08 259.41 258.62 264.09 251.06 231.9 223.09 224.46 226.98 231.38 237.76 251.8 268.61 261.79 247.78 252.48 269.66 285.05 281.37 266.17 250.89 249.39 257.8 271.68 268.16 247.32 238.92 230.69 237.81 258.08 271.73 275.82 282.17 297.45 296.87 290.57 279.24 269.97 266.91 270.82 269.98 256.73 239.87 250.56 255.04 265.92 283.78 298.55 318.7 325.36 324.58 339.5 345.07 320.08 324.37 331.26 323.0 318.26 329.45 323.53 323.75 323.41 317.05 318.81 327.55 355.12 368.74 373.41 383.8 385.12 385.42 383.03 377.68 369.34 360.82 363.0 365.86 370.2 377.82 410.8 413.16 411.36 397.65 375.61 376.98 396.54 386.79 390.51 420.96 433.58 437.02 438.66 440.77 438.37 437.04 412.36 428.94 399.37 384.68 380.4 399.95 430.63 438.55 438.58 439.91 441.16 441.77 422.64 428.03
100.23 125.19 140.77 145.81 153.89 157.7 162.43 168.69 172.73 174.93 177.57 180.13 184.72 189.84 193.99 200.73 202.9 207.58 216.22 222.07 225.84 230.15 236.55 246.89 261.11 275.25 286.69 273.05 276.91 230.65 200.49 217.65 182.38 219.03 223.61 195.87 167.69 145.45 145.0 120.32 125.56 99.86 89.74 112.2 98.36 95.54 95.31 83.2 83.66 83.82 84.19 85.57 84.97 85.35 92.53 90.54 101.57 113.52 100.84 93.18 95.83 96.46 96.7 95.87 95.33 95.57 95.32 95.4 97.34 98.73 100.15 99.86 98.96 100.08 101.68 102.99 117.08 115.09 123.06 123.13 122.54 108.79 109.02 121.26 126.57 135.14 120.11 123.04 121.57 120.84 121.92 123.73 133.31 141.51 147.07 146.35 134.21 141.46 153.19 147.96 160.61 160.69 137.04 134.88 135.83 132.51 132.36 131.42 132.42 132.69 129.82 131.29 134.78 134.11 132.72 134.92 136.44 136.39 144.59 166.69 152.18 144.47 144.55 155.95 156.24 159.28 154.71 163.93 156.64 157.12 159.04 167.38 164.41 176.71 190.21 197.85 162.5 170.47 191.06 195.94 182.82 180.48 177.63 179.72 182.42 184.22 184.47 184.97 195.6 195.81 205.38 221.99 257.36 257.65 276.15 268.03 257.05 277.04 282.85 262.87 253.72 243.71 242.94 246.46 243.53 230.3 217.42 217.85 221.01 227.0 241.43 261.04 261.64 249.74 243.08 253.8 277.28 273.81 265.32 267.09 244.49 242.21 253.52 266.47 255.85 247.55 237.08 230.29 259.86 292.28 308.65 307.35 300.73 323.36 327.9 316.88 301.28 276.54 262.98 256.9 266.58 249.95 238.59 267.18 287.78 288.42 290.18 313.3 311.53 314.84 303.15 307.66 322.96 310.39 316.03 321.77 309.35 314.88 318.19 316.83 313.01 306.47 312.3 351.2 375.67 369.72 380.1 374.25 368.48 373.08 386.28 366.85 358.69 358.7 358.81 381.51 400.84 407.17 408.9 411.56 411.51 402.78 371.44 371.85 376.08 380.99 384.46 407.84 422.97 430.49 428.17 435.14 439.61 424.61 410.35 401.67 421.5 386.64 378.06 378.6 389.56 417.75 437.47 435.55 435.22 436.62 433.74 415.47 422.53
97.07 107.28 114.92 119.84 145.29 151.25 156.24 161.3 164.6 167.21 169.35 171.84 175.75 180.78 185.16 188.47 189.05 193.98 204.1 211.32 218.79 222.51 228.93 237.43 250.95 265.54 283.6 303.38 297.96 255.41 248.17 239.59 211.7 252.39 244.44 242.41 185.42 203.26 163.28 140.04 121.05 107.29 96.3 116.25 101.22 100.02 110.58 113.01 97.35 99.23 93.69 93.84 98.36 101.33 95.41 98.23 115.31 118.8 120.24 116.39 99.03 101.0 98.08 97.26 97.01 96.55 97.2 97.11 97.95 99.32 101.45 102.8 103.43 105.1 105.48 103.31 104.2 104.55 110.37 109.12 111.22 108.54 108.45 115.73 129.61 118.98 110.46 110.61 110.6 116.79 120.03 123.69 124.75 130.07 122.71 129.94 133.13 141.32 136.35 147.95 156.78 149.63 146.89 132.27 128.74 127.52 127.86 128.48 128.98 130.05 128.29 131.17 132.73 131.68 131.93 133.18 133.6 133.86 145.75 150.57 142.86 143.54 143.75 150.52 148.9 145.6 145.61 145.86 150.3 153.17 154.87 156.17 156.89 163.87 171.39 179.35 159.65 159.33 195.44 188.48 182.37 177.55 175.02 179.01 180.65 180.74 182.26 182.33 183.39 185.76 210.16 233.3 237.25 226.78 239.79 249.51 242.31 276.66 274.07 249.21 245.96 241.18 234.15 246.44 258.79 235.93 213.63 212.49 215.44 218.54 233.27 250.5 250.65 239.11 236.38 256.39 272.98 257.6 255.62 250.53 255.32 241.86 244.55 262.72 247.41 243.47 233.23 229.11 253.96 287.45 291.8 297.82 322.07 311.03 322.4 313.24 297.32 297.18 283.32 255.17 253.79 245.79 238.21 253.86 275.98 267.99 276.89 313.63 294.96 289.86 293.63 306.42 309.1 302.16 314.76 308.23 303.05 307.31 308.72 300.31 302.84 304.29 330.4 351.38 368.69 356.75 358.31 358.32 361.73 373.03 380.22 377.62 350.6 361.61 379.08 394.75 402.23 406.71 399.76 405.83 399.42 364.92 365.7 370.42 381.53 396.63 397.72 407.05 407.12 414.98 424.51 434.21 431.31 418.13 399.17 399.21 415.49 377.85 371.85 375.19 410.1 419.83 434.47 431.6 431.93 431.15 429.54 413.41 418.06
119.79 128.87 126.73 121.98 137.54 142.16 147.91 153.3 157.31 161.97 162.55 162.39 165.54 172.1 177.46 175.8 173.4 185.34 195.08 202.67 208.5 214.12 221.29 228.41 239.66 255.52 269.97 283.0 294.38 298.84 276.47 272.88 252.06 278.86 287.24 237.13 216.37 208.78 175.58 162.79 144.43 113.81 101.73 108.0 103.48 106.1 127.72 124.46 115.92 107.16 110.37 103.7 109.57 119.67 103.2 108.95 123.45 127.97 129.95 106.36 100.0 106.3 102.95 100.0 98.0 98.1 98.19 99.31 99.28 101.62 104.01 104.55 106.27 106.82 107.0 106.43 105.31 104.56 104.57 104.58 106.55 106.93 107.89 111.71 109.47 110.16 110.38 110.5 110.59 112.28 116.83 116.84 116.85 116.86 116.87 116.93 116.94 116.99 127.76 140.57 145.84 138.79 134.66 133.27 126.2 124.27 126.43 126.97 127.9 126.42 126.8 129.4 129.41 131.18 132.25 132.58 134.01 134.96 134.94 136.29 137.47 139.07 143.88 144.64 145.14 144.43 145.88 146.05 147.34 147.65 148.79 150.0 152.0 152.1 155.19 156.6 157.85 158.54 172.97 174.25 180.14 174.69 172.59 181.84 179.47 178.13 177.94 179.63 181.99 184.48 206.36 205.36 205.77 224.87 226.39 228.69 230.23 250.39 281.08 253.74 232.06 226.39 228.71 248.0 259.49 248.4 219.56 206.29 211.09 217.17 227.77 245.02 249.94 226.75 228.93 253.36 257.78 249.87 252.11 241.16 236.64 240.99 249.22 253.37 250.82 238.47 228.46 227.24 256.59 270.69 274.73 292.59 306.09 294.45 304.92 301.14 282.37 271.03 272.37 265.85 245.69 242.63 238.11 269.45 256.63 257.55 291.61 285.68 277.33 282.83 309.18 295.53 300.48 293.82 297.57 290.01 296.21 292.83 294.95 298.32 324.72 341.92 329.45 332.37 340.97 347.37 351.29 364.21 365.27 370.07 365.13 342.56 346.12 362.94 380.38 382.13 391.85 386.06 374.95 360.04 360.05 362.62 388.07 397.05 387.35 389.54 395.16 400.9 402.8 421.85 419.95 425.53 413.34 413.48 400.23 390.52 407.46 370.12 370.64 398.39 422.85 432.35 430.72 426.74 426.32 426.66 422.71 413.07 413.59
132.0 134.14 135.54 125.21 126.81 130.59 143.36 149.22 154.77 156.54 157.38 155.89 157.71 163.78 171.64 165.86 167.99 177.89 191.0 198.85 203.07 206.39 213.97 221.94 231.71 243.1 250.13 267.06 291.05 307.24 305.55 307.48 296.94 314.75 301.42 268.49 263.37 241.77 216.47 215.93 155.04 134.76 114.68 110.0 110.15 109.6 137.39 137.45 132.54 119.97 116.65 109.13 112.56 119.83 112.43 123.33 133.45 143.46 137.82 113.68 116.39 108.39 110.59 112.79 100.69 98.52 101.43 101.35 103.32 104.31 106.25 109.32 108.77 109.47 109.14 108.05 107.02 106.34 104.58 104.59 104.6 104.97 106.18 107.41 108.83 109.91 113.03 115.04 114.75 116.21 116.85 116.86 116.86 116.87 116.88 116.94 118.12 118.63 121.83 122.35 122.39 122.8 122.8 122.77 122.78 122.79 124.21 126.0 124.36 125.39 126.27 127.11 127.95 128.61 129.88 131.49 133.11 134.56 134.93 135.75 138.41 139.68 140.62 141.78 143.46 144.08 146.9 146.8 147.64 149.1 149.0 149.72 149.99 152.25 155.2 156.76 158.97 161.83 166.29 170.79 173.9 171.99 172.06 174.04 172.66 175.18 175.17 181.63 183.05 185.32 185.71 191.89 199.72 235.2 215.66 220.89 243.73 233.67 248.37 242.91 223.75 219.66 225.79 236.18 244.38 234.31 213.46 200.91 205.1 213.74 225.57 239.7 234.86 222.31 229.73 251.4 245.81 237.43 236.35 229.51 231.52 245.34 254.92 244.91 233.59 232.11 228.38 226.37 248.73 256.85 266.0 273.33 272.26 280.11 293.11 284.54 285.68 263.87 255.68 256.01 243.95 239.47 237.66 243.82 247.28 270.42 256.77 264.31 273.3 301.04 293.21 286.03 291.3 276.84 280.32 284.32 288.22 291.25 309.95 326.31 309.2 313.43 322.99 332.68 367.49 360.55 354.79 360.71 371.7 368.15 336.38 338.47 359.56 358.2 365.01 364.19 361.79 351.14 354.02 357.27 360.81 386.54 380.02 380.03 385.41 390.16 391.88 399.63 403.18 410.69 419.91 423.49 406.83 396.27 407.23 384.71 384.19 369.89 377.04 419.31 435.26 446.09 442.14 425.87 422.93 419.51 416.08 412.73 422.17
139.96 140.46 139.99 138.82 138.61 130.79 132.66 134.39 149.44 154.14 155.71 154.41 152.46 162.99 165.96 159.08 166.84 180.34 188.29 194.73 198.8 201.68 208.15 214.6 222.35 231.34 240.02 260.17 270.42 285.12 305.0 293.59 289.39 301.14 285.48 284.66 286.82 276.12 250.44 194.83 170.53 163.67 146.66 119.27 113.81 124.98 155.26 169.15 165.04 132.87 134.61 124.71 119.41 122.87 121.9 129.61 147.44 157.67 162.75 139.06 139.71 113.48 115.45 121.15 130.35 112.82 107.01 105.18 105.93 108.34 110.96 111.75 114.15 112.45 111.26 109.5 108.26 107.6 106.7 106.17 106.12 106.1 106.83 107.67 108.42 111.84 114.91 117.01 118.83 117.6 118.34 116.87 117.74 119.11 120.71 122.9 123.45 123.79 124.66 122.36 122.61 122.66 122.75 122.76 122.8 122.8 122.81 122.99 123.6 128.48 129.33 132.93 130.74 130.59 132.58 133.18 134.38 137.23 137.98 138.8 140.35 144.56 143.51 143.14 145.73 146.05 147.75 149.21 149.2 150.12 150.12 151.68 150.94 151.78 153.94 156.2 158.51 160.81 163.32 165.89 168.74 168.81 170.77 170.36 169.15 171.26 173.43 174.87 173.24 183.35 182.96 185.47 200.82 206.03 210.59 229.26 232.41 219.94 236.66 244.25 215.17 216.24 260.42 252.92 233.57 221.67 210.07 196.44 195.02 216.76 232.3 236.57 235.16 214.21 224.03 239.18 231.95 223.24 224.26 227.26 250.73 258.67 258.8 257.09 228.69 225.71 225.29 225.93 244.22 247.49 253.22 257.42 265.12 271.26 266.62 268.12 261.31 263.26 247.18 245.46 248.83 237.47 237.48 240.59 243.91 247.47 254.15 284.6 293.09 287.91 276.54 268.74 269.89 274.15 298.27 307.51 301.33 295.36 300.3 300.36 305.39 318.08 350.2 346.16 359.83 373.9 366.46 364.49 356.69 329.64 330.69 328.9 332.43 334.72 339.86 345.1 348.98 350.17 376.11 367.69 368.31 372.34 378.57 384.65 402.37 408.77 403.65 408.34 424.0 426.37 434.97 437.7 411.05 390.06 394.15 377.76 376.24 367.95 388.6 419.77 435.46 446.58 438.03 424.43 421.04 418.76 406.52 411.48 437.18
142.37 143.97 146.16 146.22 145.53 144.98 142.98 136.67 137.02 139.86 142.64 144.91 146.42 149.16 152.62 155.84 176.54 180.78 185.54 190.71 195.12 198.76 203.16 208.22 215.6 222.1 233.68 244.62 247.4 271.16 282.4 272.16 278.66 273.47 267.46 256.16 290.56 293.7 252.85 243.57 243.28 207.48 173.04 150.68 121.16 134.84 149.09 178.14 188.69 151.96 154.0 143.32 129.5 127.99 130.6 138.73 154.38 183.5 184.03 178.43 143.9 123.93 120.77 123.4 146.22 139.32 112.54 115.05 116.42 111.63 116.58 116.88 116.71 117.1 115.07 110.68 109.28 108.41 108.69 108.25 107.93 107.91 108.06 109.17 110.66 113.44 115.97 119.48 120.64 122.44 120.91 120.81 120.6 120.95 122.93 125.06 126.21 126.84 126.88 126.55 124.0 122.81 123.8 123.63 124.21 124.37 124.37 125.27 126.94 130.16 134.87 137.81 137.94 140.98 136.65 137.81 135.57 140.1 142.59 143.61 149.8 158.31 150.49 146.38 150.76 150.78 150.17 149.9 151.27 152.63 152.6 153.49 152.78 152.61 153.37 155.53 157.53 159.91 161.93 163.98 165.47 165.48 167.75 167.66 167.76 169.11 178.0 170.62 172.6 174.66 177.26 184.41 192.69 198.09 196.94 202.55 214.34 210.9 223.01 205.41 208.1 227.24 244.2 261.87 252.07 229.43 218.08 207.08 193.19 211.65 223.26 218.4 210.8 208.92 209.81 215.09 217.69 219.67 234.67 249.02 251.69 244.61 248.17 251.8 235.43 224.06 222.53 232.09 238.5 244.6 248.96 256.25 268.43 262.45 256.2 255.12 244.46 250.41 248.2 241.54 237.2 237.14 238.53 238.7 241.92 261.1 282.54 284.18 283.09 272.93 259.6 263.87 287.18 300.98 301.29 284.42 289.82 291.34 293.0 314.76 328.12 351.93 358.41 358.79 355.27 360.57 348.11 345.85 320.33 328.47 317.84 328.27 348.4 358.26 341.61 346.41 350.99 354.69 359.33 365.27 386.9 381.56 399.19 406.14 413.63 411.97 415.71 423.17 430.87 433.91 428.75 424.27 410.48 381.04 404.57 388.45 364.81 364.94 390.92 422.73 441.98 438.57 428.25 421.18 415.72 396.78 399.64 422.27 420.33
144.84 146.51 147.69 148.27 148.33 148.64 150.73 151.97 153.55 151.66 153.77 163.71 164.1 166.4 154.6 163.0 172.49 177.03 182.8 187.72 192.19 195.41 198.97 203.92 209.6 214.38 220.62 229.25 233.67 251.73 261.38 254.97 267.53 239.81 223.48 241.93 291.46 288.12 287.37 287.89 274.07 242.23 171.79 146.74 128.44 160.13 163.64 181.62 231.35 191.53 178.13 146.5 136.69 133.64 134.33 145.88 155.43 174.59 196.09 180.15 158.33 128.22 126.03 127.92 160.67 150.68 119.84 129.73 127.03 120.62 127.71 121.4 120.98 120.77 123.52 114.67 109.91 109.32 109.88 111.16 109.99 109.09 109.45 110.38 112.77 115.45 119.14 123.82 125.01 125.32 125.02 123.86 124.19 122.6 124.48 127.27 129.17 129.57 129.92 128.83 125.43 125.5 125.13 125.27 125.11 125.66 127.7 135.6 142.4 139.04 144.37 142.27 142.94 167.07 169.1 149.6 152.69 156.05 148.67 169.89 177.89 179.09 179.77 174.51 158.3 158.17 159.81 151.09 152.87 155.55 154.9 155.09 154.34 152.96 153.13 155.36 157.29 158.89 160.57 162.16 162.85 164.15 165.69 166.03 166.58 167.1 166.05 168.65 167.93 170.17 173.45 181.08 186.34 192.92 187.49 187.24 204.3 200.98 202.68 201.06 205.65 223.09 226.29 238.71 250.91 244.46 226.78 210.8 192.16 206.95 196.66 202.42 207.93 207.98 212.03 219.55 230.46 235.18 245.35 241.23 231.3 234.11 254.24 249.3 236.01 221.36 221.89 229.01 250.17 261.78 256.43 261.4 256.68 250.65 244.33 251.3 241.81 234.79 237.92 235.97 232.92 234.09 236.51 238.7 238.83 253.87 264.94 267.06 265.09 254.08 257.16 263.24 265.96 270.03 278.05 280.17 312.15 304.39 316.96 334.55 337.75 353.85 359.36 358.68 347.46 327.56 311.38 312.75 315.4 315.41 316.47 360.23 358.17 332.92 338.89 358.66 370.31 364.31 370.12 377.3 393.68 400.61 416.42 415.93 398.87 389.48 402.63 404.05 411.73 401.59 407.85 403.93 405.67 376.06 385.77 370.86 360.48 377.54 408.33 421.86 443.16 434.93 416.24 413.3 403.6 390.99 407.42 410.36 415.43
145.97 147.19 148.17 148.79 149.42 150.91 152.51 154.17 156.04 158.57 161.74 164.68 166.15 167.18 168.98 171.36 175.38 177.05 179.54 185.22 188.98 191.34 195.12 199.91 204.02 205.83 209.29 218.4 223.41 231.48 236.36 237.22 218.29 220.85 205.54 204.01 264.9 251.13 252.65 284.45 263.97 211.5 174.17 168.71 132.71 136.15 200.35 208.81 240.85 209.8 180.01 161.85 153.45 152.62 142.38 147.71 168.63 190.62 195.32 162.28 142.04 129.5 133.88 151.77 169.15 147.11 127.88 156.02 143.12 132.85 150.76 130.45 127.17 128.14 138.66 122.78 115.07 117.31 112.84 116.12 115.3 111.86 111.29 117.23 117.02 117.32 121.41 128.24 130.55 131.74 130.93 130.26 129.02 127.96 127.4 129.85 133.69 134.39 135.04 130.46 127.58 127.53 126.89 126.76 127.58 134.04 132.52 144.7 150.64 169.76 173.54 155.17 145.34 148.16 178.21 174.44 175.46 174.85 157.12 193.67 212.12 218.87 225.44 176.1 167.36 200.55 189.22 178.06 164.99 164.55 163.38 162.77 157.2 154.78 153.39 154.91 156.77 158.62 159.34 162.0 161.24 162.22 162.4 163.62 162.42 162.43 163.5 164.0 164.71 165.24 165.78 174.83 181.55 188.12 185.98 181.09 186.28 193.89 192.86 195.34 208.88 207.6 216.15 217.63 229.74 231.85 215.85 219.84 189.66 191.41 195.02 200.49 219.52 228.75 243.03 239.53 242.93 238.62 232.75 237.66 221.0 237.13 246.74 236.08 238.06 220.2 224.11 237.71 245.54 254.69 236.51 236.67 236.65 233.71 239.42 246.43 236.81 230.56 229.97 228.32 230.0 235.0 254.37 255.9 240.17 241.68 243.01 245.93 249.24 251.96 260.55 271.45 280.7 297.31 300.3 332.58 337.0 321.76 328.24 335.78 349.69 356.01 353.73 327.66 334.8 304.57 306.42 304.02 309.45 339.01 342.19 326.34 326.35 329.95 383.54 384.92 384.11 383.73 389.34 399.53 412.13 415.72 400.29 412.19 387.03 376.52 403.53 384.8 397.63 381.42 389.93 396.57 394.59 376.31 369.3 361.21 356.42 383.58 407.78 417.55 435.83 422.42 410.97 406.03 385.74 388.05 394.36 401.41 421.98
146.67 147.81 148.45 149.1 150.01 151.43 153.24 154.55 156.45 158.96 161.41 164.49 166.15 167.32 168.79 170.45 173.11 176.59 177.95 182.14 186.06 188.32 191.57 195.22 198.61 201.05 205.46 210.95 213.36 217.17 216.96 211.72 204.74 222.26 193.05 196.28 251.46 218.02 258.75 285.84 274.83 231.7 204.88 241.91 180.13 144.85 156.78 242.91 261.37 228.76 197.54 194.88 211.48 190.97 154.25 155.18 186.43 230.35 181.63 157.47 142.37 133.08 143.08 169.86 166.85 139.76 134.62 177.69 152.19 158.67 177.42 162.4 130.16 130.31 154.37 133.42 126.45 160.54 128.85 121.44 125.03 132.61 132.39 131.76 145.03 141.77 130.81 142.73 138.98 138.86 137.58 142.15 137.53 131.51 129.39 131.59 138.19 140.64 139.32 134.41 130.7 131.79 132.25 132.81 140.66 144.46 145.7 172.86 168.4 176.03 199.11 184.96 155.42 148.67 150.68 177.86 201.14 194.86 167.02 199.07 232.68 262.52 256.8 201.02 203.73 239.81 223.75 206.29 176.09 164.75 164.8 162.47 161.19 157.78 157.79 158.82 159.34 158.63 158.95 159.44 159.5 159.65 160.39 161.16 161.96 162.72 163.53 164.36 164.83 165.25 166.39 167.67 168.39 169.29 184.7 177.54 180.53 184.01 184.36 188.11 197.95 198.84 208.03 205.65 211.53 212.77 206.56 198.16 188.86 216.41 222.06 218.33 221.01 232.01 235.36 227.86 239.29 244.41 222.84 213.75 216.59 240.66 230.54 230.59 238.05 219.07 219.35 229.06 234.25 238.13 235.63 223.63 227.93 231.3 230.05 232.7 229.2 224.72 226.08 227.83 253.46 243.94 268.98 284.95 266.12 252.81 254.62 262.28 267.6 277.22 292.9 285.33 299.54 322.02 322.12 340.93 332.65 335.89 332.47 338.2 332.32 336.29 330.64 318.47 298.58 301.56 301.47 303.5 338.18 311.12 313.21 319.46 327.4 363.49 379.79 399.1 409.86 397.57 399.67 418.51 397.22 389.44 392.39 404.66 396.41 370.02 395.62 376.82 370.87 375.68 390.97 387.82 376.74 376.39 362.22 352.7 354.52 401.67 407.61 412.71 422.75 412.35 407.07 378.55 380.91 398.84 389.51 414.18 409.21
146.6 147.69 148.46 149.13 150.03 151.24 152.57 153.89 155.84 158.69 160.95 163.01 165.36 166.66 167.85 169.33 171.69 174.5 177.01 181.14 184.37 185.15 187.21 189.72 193.57 196.28 198.61 202.7 204.35 204.42 202.66 190.83 189.7 195.12 181.79 182.72 196.73 208.19 263.62 280.75 281.99 254.75 260.86 247.06 208.15 171.44 169.76 183.34 242.19 259.89 238.12 249.61 242.84 209.92 166.89 168.83 176.32 222.48 181.3 155.71 141.63 135.25 150.42 198.88 168.98 144.63 160.88 198.5 170.63 193.14 214.52 180.17 139.72 132.76 165.21 164.22 150.17 167.52 136.58 150.66 137.5 135.93 143.73 150.57 171.59 162.29 148.74 173.08 163.23 144.62 145.24 151.02 161.24 143.06 137.18 140.03 144.76 145.6 138.47 137.0 147.86 157.46 142.03 147.19 181.46 165.44 164.4 200.7 214.84 208.55 217.86 180.05 159.51 171.37 153.61 157.24 181.57 201.36 169.23 181.57 209.27 244.81 276.84 250.16 249.12 276.23 238.27 200.75 182.59 166.21 176.98 175.0 176.0 162.54 164.67 162.98 165.0 164.69 164.57 162.93 163.21 161.96 163.11 162.18 162.85 163.62 164.03 164.45 164.96 165.6 166.68 168.61 168.7 169.25 169.99 170.68 181.61 183.05 178.4 177.94 180.99 189.38 195.63 195.46 200.8 199.07 192.88 187.38 187.89 204.93 210.6 211.98 220.22 211.67 218.87 226.39 239.9 235.98 214.34 209.04 231.87 235.84 222.39 225.12 234.23 218.2 217.95 222.82 226.89 226.32 225.63 216.33 216.92 218.27 219.14 219.72 220.57 222.94 235.7 238.61 273.47 256.06 268.05 305.2 289.64 275.14 265.1 285.21 304.88 296.32 316.15 304.94 323.26 309.99 313.97 322.31 317.3 328.2 320.55 320.01 318.92 317.2 312.59 292.89 295.23 294.02 299.1 301.28 302.79 305.24 312.92 349.99 356.46 358.37 364.96 369.41 394.09 383.87 384.52 399.28 381.5 381.27 404.07 386.54 373.35 363.02 379.04 364.26 365.25 391.52 397.18 369.15 365.09 364.29 358.99 350.82 387.1 401.65 402.6 405.94 406.0 403.41 399.84 376.27 395.63 385.72 389.42 419.34 399.35
146.52 147.61 148.41 149.19 149.96 150.79 151.53 152.37 154.0 156.6 159.22 161.27 163.94 165.79 167.23 168.91 170.33 171.96 175.36 178.17 182.17 183.53 182.17 183.96 187.33 191.18 194.38 194.44 195.2 197.82 192.37 181.59 177.73 174.41 173.78 173.91 186.57 217.07 256.79 263.19 267.59 255.23 281.42 269.45 222.77 199.6 216.94 187.24 200.61 215.52 275.94 289.53 269.56 221.4 191.56 218.38 203.87 232.89 204.64 167.34 140.97 137.86 177.55 210.17 174.74 159.35 163.88 182.21 227.36 222.68 195.07 163.71 136.77 134.82 168.49 201.73 193.76 187.93 151.6 173.89 172.23 158.91 153.77 155.91 172.05 176.88 170.07 181.85 151.03 148.92 154.67 157.52 189.7 168.51 169.36 153.53 149.51 145.36 141.85 142.67 144.05 148.08 161.54 155.35 178.62 203.56 193.64 209.82 231.87 234.19 218.39 169.82 167.77 185.47 187.86 159.98 179.16 197.1 172.64 217.56 225.28 252.37 287.93 301.78 285.82 291.49 250.19 206.9 181.38 170.13 204.36 207.79 198.64 188.94 189.36 169.04 171.0 170.96 172.84 169.83 167.26 168.79 165.47 164.92 164.25 164.31 164.86 164.86 165.7 166.6 167.71 168.79 169.31 169.87 170.6 170.9 171.72 172.78 173.87 177.79 178.46 189.64 191.5 195.19 195.72 197.66 187.99 186.59 189.05 194.92 203.34 204.97 201.9 205.99 223.72 235.28 227.94 219.76 206.16 207.16 207.82 213.02 217.47 224.82 223.59 215.26 217.01 220.46 219.78 217.54 215.03 215.8 217.56 217.9 224.54 225.37 226.89 228.66 257.27 254.67 273.39 292.65 285.15 298.1 287.45 292.86 293.22 292.29 303.11 306.33 308.82 313.31 301.05 301.35 298.36 302.72 307.81 313.52 308.99 309.11 311.54 305.33 289.56 290.53 292.12 292.87 296.61 299.21 321.21 333.84 351.16 338.61 345.64 358.71 354.36 367.3 394.6 374.5 370.58 387.13 367.83 381.26 404.06 397.01 385.23 357.6 364.38 357.78 372.21 396.72 382.23 374.3 356.66 353.64 354.02 347.74 391.03 397.5 399.29 401.27 400.68 397.95 372.99 374.22 404.22 378.16 393.04 400.25 395.53
145.36 146.43 146.53 145.86 146.48 147.1 148.41 149.03 151.1 154.55 156.9 159.71 161.98 164.29 166.16 167.55 168.57 170.43 172.73 175.94 178.61 179.9 180.11 180.16 183.47 184.44 188.79 189.4 190.07 191.3 188.32 178.9 169.52 166.41 164.32 167.79 187.06 201.21 222.97 212.59 206.07 223.2 266.82 285.8 236.57 236.5 265.14 253.81 230.64 216.64 231.63 288.52 287.9 254.89 231.22 270.3 259.29 274.01 230.99 213.94 142.85 145.46 204.33 234.79 185.02 175.01 184.8 209.8 265.22 251.32 186.42 159.03 138.97 138.13 180.2 208.91 242.83 188.26 171.75 182.83 202.99 199.54 167.89 165.69 208.89 193.55 197.33 186.37 155.81 155.28 186.43 170.12 185.26 207.89 172.5 156.11 152.54 148.05 152.58 151.52 145.21 150.28 157.87 168.06 186.0 208.4 230.53 242.58 239.86 255.37 213.23 179.2 206.13 219.9 195.96 164.52 196.81 223.5 180.02 187.12 249.96 273.18 292.31 301.69 273.58 259.63 232.71 193.33 172.32 170.96 224.7 258.16 251.35 229.96 222.02 198.1 179.54 174.33 174.3 174.23 172.81 172.98 170.08 171.68 168.02 165.59 165.41 167.21 166.04 168.94 169.39 169.64 169.95 170.37 171.03 172.24 172.76 173.54 174.66 175.62 177.01 177.4 178.79 178.81 187.65 195.5 185.0 185.48 186.96 188.18 189.27 192.51 196.76 206.37 215.37 216.4 213.65 207.58 203.1 206.29 206.73 219.0 221.56 226.24 220.63 213.58 215.76 215.84 211.29 212.74 213.92 217.57 221.28 226.42 229.51 232.48 241.39 244.23 263.81 291.03 291.68 298.45 286.87 279.41 280.61 277.07 279.23 284.04 292.65 302.88 296.1 301.16 281.8 282.43 289.26 294.72 308.01 303.49 300.64 300.89 294.97 293.96 284.47 287.18 290.43 307.91 310.48 329.09 349.38 324.69 328.29 336.56 361.35 368.26 344.76 380.36 390.32 364.74 364.87 359.24 363.55 389.03 392.01 378.01 371.22 351.79 353.22 354.62 385.42 382.64 361.0 355.58 353.47 349.47 342.48 345.1 393.16 393.92 395.38 397.8 396.87 365.75 366.64 390.48 394.94 376.29 390.96 388.47 385.41
142.61 143.2 143.7 143.32 143.54 144.93 145.5 146.72 148.37 150.9 154.15 157.61 160.14 162.29 164.57 166.23 168.36 169.57 170.9 173.06 175.26 177.41 177.83 178.42 179.86 182.48 185.88 183.45 184.2 185.32 182.41 176.87 167.45 160.85 158.47 161.42 169.48 173.09 179.74 189.26 200.29 218.05 259.76 287.04 282.66 275.76 284.41 301.74 285.03 267.3 243.95 261.35 308.71 287.3 268.88 299.67 313.97 293.32 260.08 220.07 150.71 149.06 212.77 269.09 204.9 220.74 218.87 245.48 258.2 212.09 181.33 160.97 142.02 154.11 167.94 187.82 235.06 198.17 212.87 222.16 251.12 237.63 182.6 179.94 224.0 206.66 229.8 194.42 161.46 176.47 195.91 199.38 193.9 206.29 171.12 157.36 155.32 152.58 168.03 166.29 175.05 158.31 160.79 170.69 182.8 195.35 211.78 225.99 265.76 267.92 197.5 190.48 226.01 210.17 173.19 169.2 215.3 239.11 193.65 198.22 229.4 267.9 316.34 304.15 270.81 237.9 212.05 196.64 175.89 192.41 231.73 289.66 295.49 278.26 253.11 232.94 209.5 177.82 176.43 177.02 176.36 175.82 174.58 174.91 171.23 171.55 168.59 170.02 172.8 171.24 171.21 170.62 170.56 171.03 171.66 173.15 174.22 174.69 175.52 176.28 177.48 178.2 180.89 179.13 181.08 183.17 184.29 184.95 186.59 186.78 188.54 189.74 199.68 200.62 204.34 206.21 215.4 199.1 200.33 207.19 204.98 207.41 211.09 221.36 214.86 211.24 212.64 208.61 209.91 215.34 218.2 220.12 226.66 232.6 234.4 248.86 266.45 266.5 275.4 285.58 287.49 268.34 270.31 279.4 267.29 271.52 298.96 305.93 303.19 296.28 285.75 292.38 274.93 290.33 293.26 295.55 295.28 293.98 291.95 294.11 281.8 279.73 281.57 302.24 331.29 325.61 322.06 348.81 339.46 319.57 355.09 362.02 352.21 348.8 339.99 360.53 371.6 353.46 350.2 357.08 375.19 382.52 378.49 366.84 356.52 345.45 351.24 362.83 379.42 391.64 373.69 351.92 346.81 336.67 339.42 381.67 390.8 390.27 392.44 393.94 391.5 363.63 378.54 390.93 381.53 367.73 387.3 373.66 375.81
141.03 140.67 140.9 140.73 141.46 139.6 143.32 145.06 145.94 148.27 150.15 153.77 157.44 159.69 162.45 164.4 166.48 168.02 169.35 169.77 172.59 174.83 175.53 176.29 177.68 180.38 182.79 180.58 177.35 173.35 171.73 165.42 159.94 156.48 153.4 155.98 163.14 169.92 195.01 219.89 253.88 262.53 259.73 266.95 276.71 293.13 302.86 301.26 316.83 306.23 294.69 272.33 288.44 318.31 304.74 317.02 318.41 274.46 221.06 168.66 154.36 158.22 253.91 265.12 236.12 274.68 290.25 289.72 285.54 251.36 210.04 181.0 145.13 147.49 167.83 183.68 235.13 242.48 229.34 252.93 286.15 227.72 202.12 201.16 247.05 234.47 236.49 187.38 166.85 208.1 210.21 225.94 211.92 190.09 166.67 162.41 159.6 165.58 174.79 184.52 192.83 192.16 198.39 188.01 200.07 212.25 238.13 241.73 252.31 247.89 209.13 216.34 244.03 181.2 178.41 178.77 192.81 227.11 222.34 226.37 255.3 287.54 316.52 331.88 295.08 247.77 223.36 203.05 179.43 193.79 206.41 228.83 261.8 287.64 258.38 251.81 212.57 181.55 191.51 188.78 181.24 179.9 177.66 179.94 177.6 174.4 173.86 177.38 175.01 176.41 173.01 171.87 171.75 172.29 173.93 174.56 175.33 176.15 176.15 176.93 178.02 180.45 182.39 183.81 184.16 184.26 184.88 185.62 186.21 187.11 188.64 189.35 191.36 194.0 194.2 201.47 209.85 196.12 196.75 198.7 201.3 205.18 223.87 217.11 206.0 209.22 207.66 208.0 214.82 221.75 225.13 233.92 251.16 258.25 248.56 260.17 268.86 265.71 279.57 272.1 262.46 266.42 283.12 262.41 265.36 294.86 302.72 292.45 283.97 281.89 280.33 281.94 269.03 280.93 284.83 285.02 281.05 286.33 280.92 275.18 277.15 279.4 301.67 315.43 340.65 332.33 348.32 345.55 315.05 317.25 342.55 340.54 334.89 334.85 336.6 347.0 338.33 340.3 350.08 391.87 408.9 385.72 378.85 358.28 353.01 341.33 351.01 368.42 381.82 380.42 364.47 344.89 329.5 332.98 377.83 388.45 388.11 387.5 389.13 391.06 372.02 360.22 382.01 397.45 378.72 365.15 373.68 365.43 365.46
140.55 140.05 139.55 139.02 139.31 134.75 140.82 142.32 143.65 144.15 146.64 150.5 154.18 156.88 158.1 160.76 162.02 164.48 165.89 167.94 169.38 171.16 173.38 173.94 173.58 176.12 176.74 176.25 174.09 165.28 165.2 158.05 147.6 148.43 148.13 152.27 163.39 183.98 208.99 218.98 226.12 213.23 222.37 243.17 274.64 275.12 258.76 281.29 283.2 280.11 311.48 315.37 307.46 327.78 340.56 338.26 290.42 225.61 190.24 172.42 157.37 171.1 262.54 294.31 276.37 295.43 331.12 341.03 313.6 284.24 244.81 195.85 150.45 149.28 152.47 189.9 219.47 213.99 266.07 307.68 296.24 255.37 257.06 234.84 263.5 284.1 226.16 172.92 172.36 248.16 249.9 239.47 216.94 189.0 168.1 164.43 164.4 169.44 176.75 188.67 201.63 215.22 224.64 224.42 225.06 239.38 266.91 292.07 281.79 242.4 234.76 260.87 251.89 182.53 183.97 212.69 210.24 226.76 243.58 241.4 269.6 286.71 311.54 336.38 293.22 267.13 216.4 197.68 181.1 193.85 205.78 223.68 253.8 282.24 233.94 221.08 190.73 187.54 215.74 200.56 186.0 184.35 186.89 187.61 186.78 182.62 188.71 187.71 184.79 181.08 176.88 177.21 180.49 176.6 177.15 176.34 176.65 177.09 177.03 178.09 179.26 180.39 181.66 183.17 184.22 185.07 185.73 186.29 186.84 187.46 188.87 190.42 192.0 194.5 194.69 194.7 195.73 196.04 196.98 199.82 202.2 202.5 202.7 204.95 205.99 207.18 207.63 216.95 227.7 240.53 256.25 249.68 270.61 275.42 275.87 266.21 256.51 263.44 262.69 254.49 254.83 275.2 255.83 259.41 284.73 279.92 287.76 288.71 273.7 270.61 270.65 272.53 265.47 269.34 274.22 273.9 267.17 268.74 271.39 273.38 288.35 296.03 313.99 340.87 349.06 317.99 334.58 331.15 311.33 335.98 327.85 328.33 331.28 329.39 325.54 328.46 333.77 340.5 371.42 393.64 378.2 357.73 371.22 365.46 336.55 338.63 364.99 373.44 365.29 374.14 344.96 328.76 329.08 358.16 384.59 386.62 385.36 384.88 384.35 382.97 353.18 356.33 391.69 380.59 370.87 357.87 356.75 359.69 363.37
142.31 140.99 139.04 137.81 131.46 124.67 138.53 139.58 137.2 139.26 137.16 141.65 150.01 153.7 154.6 156.8 159.35 160.89 162.89 164.76 165.32 166.82 169.94 170.25 164.36 172.01 172.65 171.16 170.49 157.08 149.06 153.94 145.9 143.37 142.74 147.11 150.67 162.67 182.87 172.48 189.01 202.37 246.6 271.22 283.72 223.92 235.33 296.0 228.14 259.73 289.94 306.04 324.45 342.57 365.57 332.03 274.74 247.81 210.26 228.68 162.52 164.34 233.74 260.29 316.54 330.51 337.94 325.27 302.12 248.14 227.02 189.12 158.75 171.43 155.37 158.15 184.55 201.72 254.26 293.74 255.28 276.4 266.77 268.56 295.07 267.05 234.38 176.94 211.22 268.62 290.31 248.63 233.55 195.16 168.51 168.14 167.59 171.75 180.22 190.82 198.65 213.9 228.72 236.39 242.27 262.98 285.61 305.19 300.88 281.93 289.04 304.92 264.02 196.46 190.66 197.97 216.02 236.69 249.3 255.95 272.48 290.88 325.37 333.78 290.63 262.37 231.38 209.2 182.52 194.99 221.06 245.6 262.33 251.73 223.59 199.25 193.99 265.6 247.32 213.01 189.98 195.06 194.64 196.07 210.19 217.17 214.29 210.89 191.11 193.13 192.34 199.73 197.65 194.81 186.22 182.98 181.33 181.57 178.99 180.19 180.99 181.75 182.29 183.05 183.96 185.6 186.56 186.93 187.7 188.84 188.85 189.71 191.51 193.06 194.21 194.92 196.04 196.61 197.76 198.89 202.4 202.7 203.37 207.0 209.21 212.78 216.51 226.81 244.22 251.38 259.91 261.34 259.04 263.97 266.71 248.01 256.5 260.13 245.91 253.08 267.17 262.6 252.86 259.84 268.51 270.67 275.27 270.64 262.84 266.34 268.75 261.83 257.6 259.66 261.97 264.55 266.11 283.08 289.07 302.42 295.57 313.83 329.85 334.79 326.58 310.82 322.02 306.14 307.16 309.16 309.54 312.97 315.72 318.9 322.58 353.36 358.0 352.93 358.91 371.65 389.48 357.3 342.24 332.52 334.31 342.4 360.51 359.57 363.82 352.35 328.02 327.08 354.41 379.86 388.4 384.44 382.59 381.49 380.65 348.65 351.18 390.39 380.92 368.15 351.81 352.14 355.56 364.18 369.79
145.97 143.4 138.37 134.34 126.56 119.85 134.32 136.79 132.48 127.71 128.41 123.66 137.53 144.29 152.06 154.76 156.92 158.87 159.21 161.34 161.31 161.35 164.76 164.02 153.98 155.59 165.21 166.63 165.91 161.7 144.83 143.0 152.78 141.74 137.42 140.84 143.9 149.59 157.64 167.64 217.53 248.53 260.8 247.17 257.96 199.13 262.13 268.46 204.15 256.12 263.12 263.36 284.66 319.12 332.86 338.66 307.75 286.82 242.68 263.26 203.88 168.16 181.27 238.61 292.54 313.78 317.34 282.39 246.57 228.95 188.97 168.72 163.95 187.93 171.67 159.84 163.55 193.18 243.47 222.44 217.36 245.08 222.59 236.1 277.82 232.09 204.29 181.23 218.76 269.62 299.32 272.47 247.38 210.79 180.61 172.2 169.87 170.98 171.72 181.8 190.67 208.91 221.42 236.21 250.02 282.36 304.33 317.02 307.53 307.33 297.38 292.99 227.7 209.53 223.53 216.47 225.37 233.62 244.8 268.63 279.53 294.77 335.16 331.23 288.68 244.94 223.04 205.61 186.27 206.98 235.81 260.8 283.5 251.54 220.3 202.29 226.53 272.76 264.9 217.73 194.74 209.02 234.08 204.09 252.6 275.24 252.82 266.56 207.84 195.02 236.67 252.7 225.04 205.31 228.86 227.56 199.8 189.89 189.8 188.15 184.86 182.69 183.86 183.68 184.94 186.63 187.38 188.03 187.71 188.34 188.87 189.64 191.32 193.0 193.94 194.65 196.07 197.39 198.83 199.64 200.42 201.58 203.06 205.13 209.44 215.29 219.14 230.33 230.55 237.35 247.76 248.91 249.76 257.12 257.57 242.61 251.05 243.85 244.3 258.03 249.32 246.05 249.75 269.95 267.95 265.27 244.53 245.6 247.34 255.4 252.15 254.19 255.71 273.9 289.18 284.03 300.14 308.61 301.63 319.95 307.99 328.81 325.8 311.45 319.27 305.65 309.21 301.64 303.54 306.3 310.87 312.1 327.6 334.56 358.11 356.72 347.35 341.13 349.72 369.71 379.53 368.43 340.04 329.62 336.11 340.29 354.27 354.04 354.81 330.92 321.41 323.95 362.69 379.61 381.79 379.56 378.95 376.1 341.66 344.62 389.9 412.19 399.73 362.11 348.67 354.12 362.96 384.23 386.03
147.42 143.7 140.11 133.57 132.75 119.6 117.88 134.04 135.05 120.85 111.09 107.54 123.5 139.23 146.92 152.69 154.89 156.46 156.7 157.46 158.18 157.04 159.0 156.59 150.34 142.0 153.97 159.81 162.75 161.07 154.2 136.99 133.2 139.04 132.37 136.31 140.47 145.8 153.72 166.57 188.43 215.62 239.32 216.36 216.66 178.64 249.98 247.31 191.28 266.36 224.17 214.54 228.38 270.2 313.11 358.68 326.95 279.13 264.91 262.55 203.03 176.62 183.92 196.73 238.19 309.91 294.22 255.67 218.92 192.34 178.49 175.41 214.78 221.78 214.81 211.27 166.14 167.48 192.13 199.97 211.4 196.09 204.22 229.4 251.15 267.61 230.99 185.77 200.25 229.68 299.99 308.13 262.5 223.61 207.13 175.79 175.99 171.74 172.81 174.86 191.52 212.26 230.12 236.54 257.83 289.47 309.64 297.15 284.6 307.33 280.05 251.93 243.52 239.71 233.55 236.38 244.8 256.36 254.53 268.65 278.72 294.58 327.6 338.31 290.25 256.7 212.45 203.12 191.79 209.56 243.68 275.27 269.89 238.21 212.65 206.13 239.15 256.01 265.23 220.03 198.97 246.65 268.31 212.14 223.6 293.55 294.63 258.01 217.69 200.63 242.68 277.51 261.58 240.69 269.81 241.31 207.6 192.72 237.78 229.74 200.18 190.49 186.31 188.51 187.42 187.64 188.29 188.9 189.28 188.79 189.02 189.59 191.54 194.23 195.71 195.29 196.26 198.29 200.18 200.8 201.96 201.95 202.68 204.49 207.14 217.9 218.81 219.22 224.51 243.82 246.51 244.12 245.32 255.55 244.82 239.41 242.07 243.84 251.21 239.94 242.07 246.04 261.53 257.26 251.13 242.63 243.43 249.19 248.48 249.81 251.31 277.63 279.0 299.28 297.11 296.6 309.39 324.15 322.6 315.03 318.67 314.85 307.64 303.78 307.32 296.81 297.78 300.24 308.94 316.44 322.46 319.72 328.6 351.67 362.31 347.52 336.73 337.88 343.79 349.07 356.15 351.14 325.34 327.01 350.02 341.52 350.14 356.16 333.61 315.94 317.73 343.92 369.64 371.27 369.58 373.05 373.52 348.33 338.84 378.62 400.84 413.52 388.14 369.19 347.08 353.88 380.75 406.26 389.11
148.32 144.77 140.74 137.01 127.33 121.78 108.55 124.82 123.46 133.27 126.12 93.81 96.43 126.36 137.57 148.88 151.77 152.45 154.8 153.73 147.85 149.63 153.73 147.62 139.11 134.03 131.83 149.31 157.05 156.81 149.95 140.27 126.01 124.54 127.4 132.34 136.42 143.62 152.3 163.74 178.26 198.13 224.02 190.51 197.98 168.94 224.12 185.92 178.63 197.56 183.74 196.07 253.35 278.19 318.51 345.95 326.26 302.38 285.45 243.96 215.44 191.64 238.6 216.37 225.91 302.87 305.93 273.74 226.67 195.15 214.82 183.16 192.64 249.53 256.99 262.55 227.53 171.02 171.28 177.5 183.79 192.65 212.21 226.03 265.73 282.39 262.23 192.02 195.3 260.47 298.61 263.18 251.89 214.52 191.51 181.83 197.17 206.13 188.75 176.19 179.81 198.4 229.54 222.28 227.8 263.3 302.52 269.7 284.57 330.86 324.82 298.63 270.54 264.13 255.27 249.8 252.03 261.36 277.94 287.79 296.06 300.31 317.55 309.8 268.59 240.92 216.46 196.23 194.44 213.64 238.42 273.53 279.23 262.31 212.78 232.4 282.21 278.14 300.17 239.77 205.34 263.75 297.84 219.91 221.35 279.61 288.29 274.67 223.33 205.58 269.28 289.59 309.46 283.01 276.83 224.34 197.57 196.2 252.86 258.5 233.52 226.15 196.58 190.62 189.05 188.6 189.22 190.42 190.63 189.95 189.55 191.14 193.58 194.77 198.28 199.1 199.89 201.32 202.15 201.83 203.13 204.57 205.45 205.62 206.96 213.94 219.58 229.06 234.45 242.82 235.31 242.15 245.86 250.38 239.46 233.4 239.15 239.62 235.15 237.02 243.94 246.4 237.45 237.66 239.27 241.19 249.77 258.83 280.02 283.43 291.25 295.93 288.03 289.71 292.03 306.6 339.52 323.07 311.88 303.47 308.57 318.3 301.23 296.48 291.22 293.86 297.74 312.17 328.16 325.59 336.0 336.9 334.24 345.77 344.49 339.75 329.2 339.34 337.85 341.13 334.09 331.03 323.06 339.68 352.24 355.02 356.34 337.38 311.69 312.23 331.58 353.55 367.88 363.9 363.91 364.99 366.94 334.9 342.01 391.15 419.36 401.63 365.43 351.73 345.7 367.11 393.14 382.69 369.75
146.65 144.71 140.86 139.5 136.14 114.99 104.07 95.82 97.75 110.48 127.9 106.34 90.82 107.68 129.44 136.4 145.44 148.05 149.53 150.85 148.77 146.08 149.7 150.25 133.62 128.76 123.07 138.54 149.7 150.06 145.57 135.11 122.8 121.49 124.69 130.24 137.59 144.17 150.89 163.11 179.04 198.39 205.15 171.79 190.01 159.32 175.55 169.92 171.94 177.33 196.65 218.98 263.81 278.05 307.88 289.81 316.25 325.62 297.36 280.26 230.65 201.64 263.12 255.11 244.68 266.97 312.81 283.82 220.25 213.36 263.14 196.92 220.59 272.97 308.12 292.05 259.14 192.54 182.02 210.23 191.73 203.26 256.84 296.28 321.91 277.03 225.74 205.48 202.18 235.0 283.02 247.35 221.06 195.12 190.33 186.63 209.17 234.8 227.23 178.85 179.81 189.82 197.21 209.6 235.19 276.85 298.48 256.53 286.9 339.56 316.67 315.47 305.09 288.78 284.06 276.19 284.44 294.7 303.36 318.3 324.92 329.57 330.36 314.52 267.36 231.64 216.08 200.21 196.77 222.8 238.9 264.93 313.52 271.74 221.03 256.26 309.54 299.22 281.47 235.14 209.82 240.06 264.24 241.54 229.5 244.55 247.12 236.65 218.28 212.32 236.78 256.87 270.6 262.35 248.32 226.62 201.52 223.63 250.06 276.41 279.33 222.05 207.0 217.03 202.22 189.28 190.17 193.16 193.98 196.97 190.23 190.24 195.04 196.01 197.62 202.76 203.39 203.59 205.62 206.93 206.08 206.47 207.37 208.55 209.4 209.48 213.87 220.27 229.79 235.67 231.87 233.7 245.5 244.06 232.05 230.1 230.79 231.69 232.67 234.99 234.26 234.27 235.99 237.8 242.49 246.48 265.41 284.28 289.92 283.1 291.04 277.31 280.06 292.39 324.38 331.46 327.56 306.11 298.6 294.84 309.22 306.99 285.98 287.84 290.96 307.13 320.1 321.13 328.93 346.09 354.61 353.68 346.03 359.06 354.39 346.19 327.38 327.03 328.84 328.64 334.74 321.66 320.13 345.58 350.56 350.61 334.03 304.39 306.39 309.45 328.48 343.84 359.24 359.87 360.03 359.86 329.98 330.7 365.05 398.33 390.03 379.3 376.7 347.26 343.77 365.09 375.79 372.25 356.77
142.3 142.7 142.18 140.47 138.32 136.95 131.92 125.31 94.93 91.67 111.11 120.81 84.66 88.12 96.74 117.04 132.24 143.41 145.29 146.93 146.6 137.34 135.25 146.57 144.93 136.51 118.87 118.52 140.08 143.81 140.05 126.09 119.41 116.77 120.8 135.94 142.53 150.82 160.63 167.88 174.52 172.38 178.95 159.52 147.13 151.5 156.33 162.44 169.56 192.48 205.28 221.38 241.03 268.61 270.07 256.71 275.0 278.68 275.84 258.06 226.46 211.97 260.35 283.36 284.89 277.9 300.51 258.88 244.74 259.12 270.68 216.06 250.6 305.65 283.31 260.15 236.86 209.36 199.14 261.48 238.4 206.84 233.65 262.9 291.88 268.82 238.73 234.24 219.52 252.52 236.19 231.66 204.58 198.17 204.07 191.96 208.42 249.01 255.49 237.8 181.85 183.48 197.08 230.86 257.46 278.83 263.35 246.8 269.83 308.45 284.45 311.53 303.23 330.07 339.8 322.18 326.54 340.19 327.39 325.04 343.5 307.65 297.64 291.19 255.54 229.95 205.42 204.81 223.69 244.94 263.14 279.2 280.99 262.02 227.29 246.57 268.28 262.01 245.49 220.61 214.87 241.99 265.44 250.18 238.29 269.42 271.27 241.93 220.37 219.31 239.87 257.86 248.69 238.88 231.82 216.97 205.63 223.4 246.35 268.38 264.79 215.23 215.22 254.05 249.76 217.23 199.14 195.22 196.21 201.7 210.4 190.98 190.99 201.51 201.56 204.4 205.25 206.43 207.56 207.92 211.15 207.93 211.0 212.62 212.34 210.62 211.66 224.73 233.21 225.81 230.1 239.05 241.95 225.97 227.37 230.0 231.1 231.96 232.13 232.79 232.85 234.36 235.21 245.47 262.62 272.42 297.64 299.06 272.18 276.06 275.18 275.4 299.84 305.16 329.69 315.52 309.88 303.62 292.07 291.79 296.8 282.31 283.98 308.31 299.29 302.97 316.28 332.68 341.93 350.77 356.92 347.51 353.91 365.73 348.19 336.28 324.33 322.28 323.53 321.23 316.14 316.5 318.6 345.68 348.22 340.39 304.4 304.18 305.54 320.5 329.16 345.52 353.42 354.76 357.53 346.16 326.69 347.01 378.28 384.77 375.05 366.51 365.17 339.05 340.21 364.05 359.5 358.69 350.93
140.48 140.93 141.7 140.69 137.16 135.14 133.48 130.64 125.77 86.97 85.04 82.84 81.68 110.63 99.72 107.67 117.81 135.51 141.09 142.74 142.71 132.38 133.8 144.4 142.62 136.73 126.64 113.58 122.33 134.71 133.9 127.56 115.31 111.83 122.38 139.43 146.88 150.34 155.21 155.2 149.96 147.07 136.57 139.27 143.65 176.45 193.73 214.07 231.63 254.78 239.99 236.99 272.97 290.36 255.36 236.42 253.25 245.99 288.5 254.13 233.13 238.68 270.5 303.01 309.92 310.19 311.98 283.45 295.62 298.98 264.33 236.2 273.93 317.92 297.06 292.66 269.56 246.81 218.09 287.18 271.81 228.46 228.47 240.08 260.92 278.69 269.65 262.16 249.73 272.8 243.56 216.06 209.43 215.95 240.92 197.98 204.56 223.0 226.8 207.12 190.62 185.01 189.12 207.51 224.94 246.2 233.84 237.99 255.19 279.03 267.54 266.66 276.37 305.79 358.14 345.27 320.45 311.39 297.75 288.3 293.62 285.24 277.43 260.5 247.57 232.14 206.39 220.68 226.54 240.41 267.6 281.3 269.68 252.55 233.61 267.74 288.38 278.94 249.7 220.62 222.04 288.9 316.93 277.27 249.78 332.64 324.11 268.04 240.18 226.44 273.8 311.48 269.99 239.04 227.63 212.91 209.27 222.56 236.93 247.19 234.88 221.1 247.67 273.63 258.66 232.34 209.52 225.6 198.08 199.58 227.25 219.41 194.99 196.81 207.7 207.39 210.61 207.74 212.59 214.22 220.28 217.07 218.12 217.76 216.48 213.59 212.82 213.79 214.58 218.92 227.22 219.29 220.55 223.58 228.29 230.64 231.79 243.93 251.5 260.82 267.05 259.39 270.31 261.85 284.43 290.49 294.07 294.87 267.51 267.52 275.17 282.0 291.4 321.64 313.87 307.55 295.25 293.39 285.51 283.23 278.45 280.19 296.87 314.7 339.47 311.72 317.86 328.61 344.43 354.61 341.65 342.13 356.96 359.47 350.04 337.9 322.96 315.61 315.82 311.59 312.92 317.43 339.4 342.73 345.12 340.01 302.78 305.15 312.53 316.3 328.43 340.81 346.04 350.35 347.73 323.23 325.74 358.96 376.35 378.01 369.56 354.61 356.62 338.68 342.16 356.33 348.34 346.96 345.96
140.07 140.79 141.31 140.98 137.51 134.5 128.15 121.79 120.89 115.09 105.55 81.25 81.03 119.2 129.74 120.73 125.55 132.82 136.4 140.48 138.14 129.0 124.4 141.03 139.13 138.65 137.68 111.16 104.43 107.07 125.29 121.45 107.11 107.69 123.72 133.53 137.41 140.54 143.26 142.02 128.39 131.18 133.83 137.22 185.62 211.8 230.97 248.59 258.36 261.1 276.01 277.24 275.63 261.3 235.66 222.45 227.66 238.3 271.49 281.96 266.31 272.1 297.16 315.09 282.01 279.89 298.12 314.99 320.45 304.03 273.78 256.95 280.52 324.07 319.55 322.72 291.63 256.05 234.76 291.56 292.08 281.64 258.9 262.91 262.0 302.21 304.15 283.16 280.14 287.88 236.62 223.68 229.16 257.35 242.17 205.75 206.62 240.74 236.2 205.57 198.82 208.75 191.36 207.17 214.47 223.02 228.08 257.12 268.17 247.0 252.14 261.52 306.26 321.64 338.25 319.49 304.39 296.21 287.6 277.08 271.95 266.76 264.66 253.85 240.81 229.57 210.26 227.09 233.36 245.68 259.15 283.13 300.19 248.04 242.1 248.4 321.7 346.18 318.74 259.28 227.54 253.79 310.22 308.45 264.81 318.37 337.3 321.4 272.77 233.3 284.28 344.37 304.36 285.88 255.41 215.07 214.41 251.09 266.18 244.62 234.02 233.12 239.44 259.43 245.19 234.95 215.88 237.97 223.19 201.77 221.62 241.54 221.22 205.71 208.08 220.51 229.48 232.52 217.93 225.47 235.4 244.06 236.33 227.28 217.0 218.1 216.96 216.84 215.18 216.28 217.85 218.75 220.88 221.64 230.21 239.42 237.09 246.36 250.33 257.12 271.77 272.51 274.99 280.03 283.9 287.84 289.97 279.67 263.13 268.39 275.65 285.81 305.62 315.45 313.94 295.22 287.07 298.47 288.55 275.7 276.94 291.3 302.29 322.8 342.81 331.8 321.47 333.06 335.24 336.93 340.7 352.91 366.09 359.2 360.23 356.37 330.55 308.76 307.44 309.2 330.79 335.22 338.19 340.28 342.69 322.68 298.6 308.11 313.43 319.47 324.35 340.72 336.28 317.06 317.59 320.49 347.98 370.18 368.03 379.47 357.77 343.2 341.94 336.02 336.94 339.44 340.12 341.29 343.32
139.88 140.66 141.18 140.47 138.79 137.66 133.44 121.22 110.16 107.42 118.89 103.15 80.97 108.23 122.39 132.4 136.24 135.51 138.44 140.27 137.8 120.81 121.65 137.67 135.13 133.02 134.6 132.76 101.55 96.98 96.0 114.01 103.8 105.16 121.19 128.69 129.15 126.26 126.31 125.16 126.7 130.98 135.68 148.4 168.78 189.04 200.59 235.33 224.67 240.77 269.92 254.48 251.47 274.06 241.66 209.44 217.35 249.85 291.74 310.77 305.78 309.77 322.56 288.6 274.98 260.39 287.92 318.86 312.07 292.28 302.59 302.94 299.13 301.5 341.93 322.56 295.5 252.77 252.76 273.04 302.31 319.1 317.26 302.15 318.07 342.19 338.44 309.44 301.46 281.77 243.63 265.51 260.0 275.47 234.06 214.84 214.7 251.21 231.43 205.78 203.02 233.15 193.01 195.0 212.09 218.78 239.29 244.37 241.02 242.18 285.58 289.86 318.64 360.17 358.08 348.26 328.37 324.09 323.62 303.14 294.81 268.02 257.62 250.58 247.61 217.38 215.26 234.53 241.07 276.32 307.43 342.28 263.95 255.63 300.78 254.61 258.6 340.36 348.07 304.62 232.57 232.98 295.22 331.96 279.59 333.57 407.51 368.84 305.09 241.37 246.08 331.67 380.84 344.77 295.32 219.64 241.03 300.98 309.66 270.71 253.31 251.34 272.4 278.35 246.3 230.06 222.77 228.2 212.15 204.25 209.83 226.63 227.27 208.91 210.6 232.18 247.7 243.72 220.95 222.19 262.92 286.41 276.42 240.26 224.63 231.46 221.87 220.46 221.86 222.93 222.52 223.35 223.31 222.99 226.08 226.56 227.09 243.53 244.28 257.93 263.22 269.07 272.86 277.6 280.75 284.79 276.97 257.96 263.12 269.48 291.88 293.77 294.21 297.11 301.49 288.2 279.86 290.59 271.87 273.29 289.37 293.28 311.09 327.63 337.12 341.22 333.17 337.01 326.74 330.83 350.29 363.66 369.11 373.94 375.39 356.4 329.42 304.55 305.13 324.86 330.97 333.68 336.38 339.36 341.19 318.86 296.16 296.55 315.03 321.02 329.16 337.33 321.38 315.02 337.12 344.35 364.61 364.21 365.19 376.07 346.88 338.43 337.19 334.87 334.81 336.28 337.78 346.24 367.86
139.75 140.6 141.04 140.69 139.63 137.95 133.55 124.58 116.51 98.57 94.06 86.33 81.07 82.33 106.89 127.33 136.1 138.12 140.01 140.59 138.19 123.08 114.9 110.61 125.75 120.65 121.41 128.64 122.57 106.08 94.18 101.9 100.19 101.76 111.44 121.35 124.9 121.41 120.05 122.41 126.94 132.15 141.44 152.98 162.64 170.93 191.09 216.39 211.96 240.31 258.96 231.59 231.68 265.16 259.17 203.85 207.32 275.85 298.04 283.57 313.75 313.52 312.82 277.45 250.3 255.32 315.67 305.39 328.94 286.45 275.79 294.01 279.34 298.99 324.44 330.38 310.64 274.61 293.94 279.91 293.65 313.14 332.24 316.37 318.46 324.14 312.13 332.7 325.22 281.78 283.76 310.01 299.16 289.15 246.43 233.01 223.81 241.42 225.32 206.73 206.47 226.77 224.64 200.94 202.72 214.7 217.8 224.23 241.01 278.99 311.48 332.42 332.38 357.53 356.83 341.08 358.36 377.42 368.23 340.56 347.49 338.28 325.63 301.98 241.37 219.67 264.53 321.0 251.71 296.07 375.68 358.22 275.1 328.02 358.14 309.11 268.92 295.86 384.11 342.21 292.85 239.43 285.15 361.94 297.86 352.36 419.5 383.9 345.5 282.68 258.45 310.27 366.58 319.54 268.52 226.01 257.86 336.32 367.68 331.44 291.91 280.41 316.31 319.22 274.0 245.81 233.55 223.01 209.85 207.03 208.67 228.89 228.28 214.19 217.56 222.23 231.44 237.36 229.23 229.1 242.4 262.26 275.66 244.33 229.2 261.27 259.33 247.44 230.35 228.15 227.42 226.6 225.94 223.78 225.06 227.23 228.38 235.56 245.47 253.66 256.91 268.16 271.9 278.62 278.9 281.19 273.3 255.02 260.12 270.65 285.09 291.92 281.33 285.75 304.53 282.21 279.11 268.5 269.87 281.46 304.22 308.06 318.31 317.56 333.13 324.69 345.0 320.44 325.03 338.25 346.71 362.59 359.06 360.31 366.86 348.14 319.06 301.68 320.6 325.29 328.18 331.34 334.68 337.05 338.17 332.09 294.33 293.41 315.48 323.56 332.68 338.65 314.47 314.89 328.18 339.33 364.44 354.4 379.97 358.13 335.83 329.65 332.83 332.58 332.6 335.5 362.1 380.5 394.54
139.64 140.53 140.94 140.84 139.94 138.7 135.46 131.3 127.33 122.73 120.17 106.67 80.94 76.01 71.6 116.12 126.01 134.69 138.34 138.84 137.42 135.1 133.23 107.66 102.69 98.42 105.22 114.74 123.17 102.63 91.83 94.23 96.52 97.7 107.02 112.37 116.08 115.86 117.24 120.41 125.31 136.45 141.61 152.13 169.81 181.84 191.72 195.09 202.08 220.93 234.82 220.22 219.08 251.15 254.03 196.47 201.92 250.3 262.91 254.53 273.93 289.77 274.93 291.39 238.71 258.38 304.54 285.13 275.6 286.04 259.59 264.67 250.35 279.53 303.81 305.08 310.56 291.11 303.0 306.27 308.12 319.88 287.08 298.0 309.18 316.5 290.85 316.8 330.55 311.72 328.99 340.61 330.17 309.47 283.05 286.78 245.28 266.5 238.86 214.99 227.41 239.39 225.98 219.28 206.99 212.07 218.32 222.37 266.63 288.58 273.83 289.24 313.93 340.67 343.68 328.86 344.77 347.3 340.34 324.93 324.21 325.31 343.32 318.24 231.55 227.57 289.08 359.54 265.02 269.14 339.41 344.57 287.29 337.05 389.92 353.35 281.39 284.85 398.73 377.67 297.85 246.26 290.19 348.97 318.73 346.42 388.43 394.38 359.52 326.91 270.9 312.8 372.06 344.83 295.79 231.71 237.89 306.43 351.63 372.44 333.91 369.13 382.25 367.58 333.88 301.9 276.86 252.31 216.89 214.67 211.06 212.74 219.64 220.98 229.0 232.5 232.39 242.13 237.03 236.25 242.61 265.12 252.82 240.56 234.58 238.33 273.61 256.02 253.22 240.38 238.48 234.13 232.43 231.9 237.18 231.67 230.23 230.92 242.19 251.39 247.59 264.17 277.41 275.81 275.67 268.81 266.16 251.94 262.64 269.89 281.82 290.07 274.92 279.68 289.89 269.38 268.0 268.01 283.33 297.82 310.71 334.84 330.86 309.77 314.96 319.46 321.27 315.46 336.53 352.54 351.57 354.34 351.57 346.97 341.04 330.72 299.11 298.78 320.62 325.59 328.29 331.19 332.26 333.49 335.54 334.35 292.26 292.67 304.49 317.77 331.78 312.09 313.18 318.38 350.95 369.24 353.45 350.26 361.18 345.21 327.12 328.21 328.02 329.9 331.78 366.82 374.68 397.63 412.05
139.52 140.5 140.55 140.55 140.06 138.94 136.87 133.55 126.8 122.8 122.81 119.98 108.43 74.94 71.28 71.47 103.48 128.12 134.88 137.16 136.47 134.32 131.1 127.87 121.79 95.52 92.44 94.86 110.96 102.11 89.42 91.77 94.73 97.66 102.38 106.77 109.97 112.59 115.72 119.26 129.94 147.4 156.35 167.22 175.18 180.86 185.85 185.53 198.97 208.14 216.71 206.23 213.2 222.4 222.13 191.01 207.13 224.67 225.27 232.72 248.68 259.57 254.11 263.0 230.95 248.67 270.72 284.85 240.67 261.52 246.42 238.15 248.48 297.36 269.9 274.52 286.92 306.06 287.99 276.53 295.16 279.23 274.19 288.51 290.08 300.27 277.56 297.48 321.02 326.78 329.82 317.28 333.66 330.1 319.17 310.6 278.62 292.47 248.65 224.14 239.86 270.29 231.1 248.61 216.1 231.99 236.05 226.37 231.82 244.98 262.79 313.67 342.99 363.89 352.53 318.99 316.08 325.59 316.74 310.5 301.14 302.87 285.28 272.39 236.42 271.69 337.98 374.71 308.44 284.47 328.49 370.52 309.59 346.78 402.52 402.12 307.6 300.22 363.85 377.12 257.0 251.62 279.62 312.84 344.68 364.67 401.04 421.57 395.47 330.84 282.32 331.28 384.42 366.79 310.28 238.57 237.9 289.63 306.55 354.9 375.09 388.8 365.99 347.33 354.97 350.13 332.51 259.42 224.67 251.96 226.62 214.95 225.95 246.76 256.3 264.37 267.07 253.01 244.11 242.58 247.97 272.36 273.05 249.35 240.42 241.91 267.17 291.25 287.97 274.84 260.02 264.97 273.68 259.28 237.89 235.17 253.99 232.57 234.09 235.21 236.4 239.79 261.09 262.69 279.33 263.05 252.42 249.2 271.49 276.15 273.84 284.93 268.21 289.59 279.85 264.51 265.41 277.76 282.75 302.97 333.95 319.53 311.78 304.46 304.83 303.66 308.35 315.45 345.86 373.03 369.04 352.39 349.57 340.88 329.94 315.83 295.7 298.04 322.67 328.17 328.4 327.97 328.91 330.1 332.65 330.51 291.33 295.8 301.19 312.93 305.11 307.2 312.37 338.83 364.08 375.76 345.98 347.88 348.15 332.86 324.41 323.74 325.89 353.65 354.6 355.82 382.61 400.54 404.69
139.4 140.03 139.69 138.3 138.03 138.95 138.47 136.53 133.21 127.33 117.44 109.85 99.23 99.7 89.52 71.21 71.32 114.18 123.77 130.68 134.94 132.62 125.61 123.01 126.21 122.48 89.66 86.6 105.75 102.65 87.22 90.42 94.16 98.06 101.59 104.92 107.96 110.84 114.8 120.94 144.52 151.05 157.59 165.65 169.9 172.77 176.6 179.69 189.07 197.72 204.79 195.36 201.69 204.37 199.38 185.09 194.88 209.56 209.8 212.46 228.37 237.8 228.9 226.7 223.46 236.21 248.68 248.67 213.02 205.83 234.91 222.77 247.19 257.69 258.68 272.76 261.2 283.89 263.67 262.03 290.37 260.98 280.7 282.14 277.54 289.84 268.63 283.55 317.38 316.65 311.76 293.49 316.24 327.43 337.75 328.64 304.6 302.57 245.95 237.31 270.12 284.4 243.86 276.58 223.35 235.29 253.39 264.54 237.65 245.3 256.58 272.76 314.43 352.83 361.7 328.87 312.61 308.38 306.97 306.95 296.9 273.61 257.86 250.75 241.87 282.37 365.4 392.47 357.14 315.86 323.61 390.18 330.45 346.81 407.99 417.46 314.87 315.34 367.38 375.68 277.02 257.11 298.61 344.86 380.5 388.13 415.92 438.48 417.71 337.47 295.32 355.5 411.0 358.82 299.56 266.61 242.01 260.27 283.11 313.42 373.88 381.66 346.71 313.13 319.28 312.9 288.48 235.84 231.85 310.84 253.82 217.9 236.17 253.06 322.13 308.17 266.21 254.31 263.86 268.38 255.29 259.54 317.76 296.75 272.55 247.61 249.95 286.83 297.44 296.64 286.48 317.27 315.03 273.08 238.57 237.8 295.24 273.75 258.01 242.39 237.27 237.96 239.01 250.75 263.74 260.08 244.72 249.19 266.28 265.71 268.02 259.78 267.57 283.68 263.27 263.28 276.64 294.55 293.47 309.47 330.72 321.33 302.64 296.53 296.54 300.92 322.92 337.27 366.43 364.24 364.52 341.34 350.84 349.72 337.8 313.79 292.97 308.97 321.71 328.04 325.45 325.37 324.87 325.97 325.96 305.48 289.42 291.72 293.5 302.94 304.64 320.12 341.25 365.68 364.78 361.07 341.69 358.82 342.6 325.99 321.74 323.76 330.7 339.45 347.38 369.1 402.31 388.77 399.64
138.94 139.01 138.46 133.71 136.34 137.31 138.57 137.47 136.01 135.19 131.24 118.01 103.65 89.42 83.02 72.87 69.82 90.89 110.0 119.61 129.33 129.82 125.93 117.56 118.02 119.8 111.56 84.14 82.72 97.77 84.35 86.28 105.11 116.97 112.39 110.36 107.81 108.63 109.39 124.55 141.47 151.64 157.88 162.28 165.67 167.19 169.27 173.44 177.79 183.17 190.84 191.36 190.65 187.84 184.15 178.75 191.11 196.28 194.6 196.88 214.13 223.65 217.82 211.01 216.62 226.45 236.95 225.05 191.22 188.4 206.37 208.92 244.75 243.63 263.91 249.21 253.25 259.99 248.83 252.92 246.29 251.92 308.09 292.98 268.72 261.04 261.19 296.84 292.92 292.03 268.31 275.14 301.78 321.02 321.89 331.54 325.42 299.4 258.51 260.96 287.15 281.55 256.99 292.46 233.21 265.5 268.58 301.7 262.63 274.18 304.7 280.57 316.91 362.9 371.37 324.86 317.15 315.82 307.73 307.04 314.19 316.94 287.75 268.64 247.4 284.6 338.32 400.15 422.79 373.81 365.13 394.48 391.36 363.03 424.68 400.66 325.65 325.22 408.27 375.91 301.3 262.5 297.28 337.07 394.3 421.68 436.93 462.3 418.09 318.66 310.95 400.46 390.19 330.57 283.08 253.11 246.62 251.91 262.24 311.12 368.99 384.92 340.95 294.2 278.64 278.74 274.92 239.8 258.59 293.11 243.81 221.01 244.64 273.13 326.65 314.93 272.25 294.18 333.28 282.38 302.68 267.13 331.22 354.61 293.45 293.72 253.91 261.96 270.36 285.37 313.99 289.85 284.29 271.61 241.29 262.91 302.08 316.6 304.01 273.84 254.71 248.45 239.52 240.3 241.59 242.85 243.42 257.19 258.56 260.28 255.87 257.01 276.16 263.27 261.3 263.69 293.9 315.63 319.9 312.99 312.93 305.92 290.77 291.69 300.9 315.3 328.04 354.2 377.35 364.96 341.65 337.96 362.42 336.48 329.3 307.62 290.35 309.45 319.3 321.24 321.5 320.66 321.43 313.56 304.59 298.63 287.79 289.89 294.69 303.79 314.59 342.56 362.61 355.8 361.26 349.28 337.94 355.83 337.14 324.22 318.67 327.38 339.94 358.14 370.74 399.95 403.53 381.37 388.18
138.18 138.23 136.68 125.6 125.62 136.11 139.68 138.32 134.53 136.53 137.65 131.92 125.68 117.31 101.86 83.76 67.85 70.49 93.55 115.39 125.51 124.12 124.59 113.75 109.38 108.11 108.47 100.45 80.89 79.24 80.88 85.59 107.18 122.57 128.18 125.8 108.11 107.85 110.65 119.11 133.62 149.17 155.85 159.71 160.96 158.87 163.12 166.42 166.25 170.94 181.79 184.83 187.12 178.98 171.15 174.33 185.7 185.92 187.05 191.24 203.23 210.22 204.86 204.95 210.94 221.43 212.74 219.84 179.73 179.04 190.4 205.72 234.82 230.49 254.08 238.56 253.92 253.66 237.48 255.71 238.26 263.38 301.29 281.98 262.0 252.89 261.55 289.25 270.07 276.75 260.63 299.56 313.97 308.25 299.16 313.88 328.33 310.79 291.41 304.0 305.98 291.2 291.27 258.77 246.89 294.72 303.23 318.17 288.46 315.08 321.76 353.59 338.49 375.69 353.48 347.75 355.4 338.52 312.73 312.44 332.9 324.81 326.35 279.25 252.32 274.27 301.29 352.98 421.3 436.65 445.5 451.93 442.28 407.02 439.15 377.7 337.86 353.29 406.84 375.67 325.66 267.85 286.66 319.95 363.32 413.38 470.06 473.99 405.03 330.53 332.81 418.26 378.33 318.3 267.17 264.63 333.15 306.88 263.77 303.11 327.46 371.2 320.11 290.26 271.09 261.19 252.46 246.66 275.3 279.01 237.48 223.86 248.01 295.14 308.31 343.18 281.32 284.83 332.87 300.1 316.42 280.05 327.87 377.59 343.25 331.63 262.31 276.59 278.31 302.65 327.27 309.21 268.15 255.35 241.85 265.82 295.23 335.46 313.02 282.3 276.09 291.58 268.0 253.56 243.91 247.14 243.67 244.16 245.02 247.86 251.48 254.6 265.31 259.28 260.47 279.58 296.68 305.08 312.7 307.65 298.58 295.19 287.77 305.54 320.97 321.58 339.28 355.4 349.37 354.75 331.15 333.4 351.71 334.33 316.18 307.23 288.05 307.2 316.06 315.87 315.57 313.24 305.3 298.71 293.72 294.49 286.5 296.46 299.74 303.62 314.57 340.57 351.68 351.03 360.71 340.49 333.11 354.85 327.32 317.41 317.19 327.04 349.36 375.49 394.35 391.36 399.0 376.99 381.43
136.81 136.57 134.97 129.2 120.47 137.77 139.25 138.96 132.62 134.84 138.24 137.52 131.76 118.1 97.69 76.98 67.85 66.33 79.18 97.17 106.45 115.38 123.14 116.94 109.73 100.11 98.96 97.47 93.01 76.48 77.15 83.08 96.56 118.99 126.27 127.32 109.16 107.84 109.33 133.35 140.2 145.53 149.93 155.67 158.95 155.86 155.32 155.0 158.47 160.03 172.46 175.54 183.35 173.99 166.57 170.6 173.38 176.1 179.8 185.57 193.59 200.8 196.84 197.38 198.52 205.74 191.67 195.69 186.45 169.53 170.56 182.38 185.73 213.17 258.61 229.37 250.31 241.91 228.18 217.35 228.26 266.37 269.61 265.32 255.08 247.55 271.37 256.78 259.61 255.44 256.02 284.78 276.42 274.36 290.07 311.88 339.27 351.48 343.03 338.72 343.52 322.06 303.01 275.53 271.32 305.24 323.97 338.16 328.34 343.37 350.5 370.42 365.01 386.26 376.52 383.5 385.82 332.0 320.51 333.71 361.63 340.64 338.2 300.83 257.39 285.68 328.65 362.01 413.49 427.93 420.15 419.76 452.38 452.12 457.54 410.53 385.9 366.65 407.99 338.81 292.11 276.56 276.57 307.1 352.54 393.01 432.33 455.74 424.81 359.29 354.04 414.07 372.48 292.92 277.37 333.12 377.69 310.34 270.62 276.5 289.15 360.97 354.21 302.94 302.81 285.72 285.14 307.75 325.05 308.09 248.58 226.48 261.79 335.45 353.38 379.93 327.41 296.24 312.74 349.3 327.38 289.71 294.66 338.65 378.21 328.37 272.76 284.39 301.17 325.1 338.48 370.13 304.46 269.18 243.57 263.96 305.06 355.4 337.09 314.96 304.78 332.31 308.55 290.48 259.61 255.41 276.45 266.21 254.86 255.64 255.22 254.7 256.75 258.18 272.93 294.33 287.2 295.03 308.0 297.07 292.13 283.5 286.88 307.83 324.72 338.07 339.13 331.34 343.22 334.56 326.24 343.73 362.67 367.56 328.11 298.48 285.2 307.49 312.46 312.77 309.83 304.38 297.14 291.88 289.4 286.27 283.06 295.82 298.8 305.19 327.69 349.89 350.88 342.07 362.98 332.42 329.09 353.97 325.63 318.66 316.05 336.94 369.39 382.07 394.21 383.16 397.63 370.96 394.65
134.88 134.26 131.83 129.38 109.18 123.61 136.57 132.59 123.06 133.25 138.17 139.08 135.41 124.47 113.8 87.05 68.25 60.22 59.14 75.92 87.79 112.83 120.94 115.61 108.75 101.36 91.1 96.31 85.3 74.87 73.31 86.24 110.56 118.18 122.94 125.56 114.51 108.28 110.94 134.81 142.72 145.35 144.98 148.3 152.32 153.82 150.0 146.12 150.86 156.77 160.81 169.47 174.71 169.07 161.56 164.6 168.15 171.9 178.42 183.92 201.85 214.54 195.35 189.21 192.14 199.02 178.27 175.18 183.23 170.1 164.17 169.74 182.33 239.46 209.91 217.58 250.46 234.54 205.56 207.51 242.66 281.66 252.23 248.8 248.23 241.08 263.69 250.57 247.48 251.44 256.0 256.64 262.79 281.23 304.19 319.17 337.83 332.01 339.36 320.02 335.17 333.22 328.35 308.16 294.19 305.31 340.09 350.07 354.58 369.42 368.49 364.93 350.7 380.0 388.94 397.12 355.28 332.22 335.99 358.76 396.13 376.29 325.27 283.57 260.85 262.75 334.16 397.37 402.14 376.4 346.99 365.62 397.74 458.77 477.96 461.26 404.59 389.17 413.21 342.59 300.94 322.73 282.5 286.71 330.92 359.64 395.69 414.55 431.35 403.32 384.46 407.95 331.86 303.59 294.01 308.81 364.08 311.28 282.55 349.71 298.21 344.7 385.65 346.63 347.01 345.18 327.13 323.31 308.14 263.52 242.78 229.06 270.21 287.05 317.32 360.79 376.2 316.2 328.15 352.38 365.84 339.74 303.37 378.94 396.31 335.18 282.8 296.89 329.93 370.94 373.15 363.24 332.13 288.1 247.62 274.67 304.18 350.48 359.4 344.6 347.33 352.58 314.31 281.72 272.59 276.53 317.47 287.57 305.23 267.79 271.45 276.73 260.0 262.51 274.2 283.87 280.95 288.09 294.59 292.24 279.81 281.42 314.42 326.0 338.99 322.69 317.12 323.83 350.06 315.15 326.58 356.22 372.89 348.85 326.5 298.09 282.51 307.33 310.42 309.9 304.92 296.39 292.74 289.4 286.49 283.22 280.43 289.18 295.63 317.39 337.22 365.23 346.6 334.88 352.09 326.3 331.32 342.93 319.03 315.93 314.02 338.36 375.11 377.86 392.26 377.82 362.98 366.02 393.14
133.69 132.56 131.86 118.6 108.15 107.53 124.21 109.29 111.68 136.73 138.44 138.46 138.06 134.1 132.26 111.54 83.66 67.45 59.07 58.11 73.61 97.04 113.22 110.87 108.34 100.68 86.66 84.96 88.39 69.43 70.95 82.27 109.48 114.95 118.94 122.31 123.21 122.06 125.65 132.54 138.89 141.9 139.31 140.9 145.59 149.64 144.42 140.34 144.21 150.76 156.25 167.26 164.17 162.37 156.04 158.68 170.65 183.89 191.03 197.88 205.55 216.91 197.63 182.01 188.35 184.08 170.18 160.76 169.99 181.24 157.82 163.84 182.02 182.02 190.77 222.46 211.34 211.7 194.51 208.11 265.12 245.01 246.76 236.18 240.54 235.88 236.25 240.71 245.27 249.82 252.79 261.22 274.68 289.76 312.25 296.37 324.97 306.97 323.69 295.82 296.87 315.89 333.93 329.51 343.43 324.29 342.08 361.44 353.85 342.67 342.71 318.81 321.63 355.74 385.89 387.65 356.54 346.76 376.55 370.01 400.01 396.15 369.89 327.34 280.76 265.02 291.64 340.02 345.11 313.99 327.82 418.27 413.76 439.38 485.18 484.97 447.78 438.33 406.57 337.85 321.85 378.81 328.62 290.95 309.53 344.15 374.69 397.33 416.02 431.76 404.84 411.6 364.75 357.62 364.8 324.87 364.24 306.82 294.18 367.38 318.04 361.75 385.42 319.56 302.58 310.47 298.55 279.06 269.46 265.94 238.97 231.94 246.46 258.32 293.17 337.17 322.06 345.13 344.72 377.53 390.74 364.56 320.96 360.48 385.63 306.57 297.76 359.16 355.9 397.45 412.35 368.35 354.27 289.38 251.82 304.81 327.82 322.75 329.59 334.1 363.25 376.2 340.96 318.04 314.18 303.38 345.61 325.98 281.27 280.01 316.51 315.59 291.72 264.91 265.5 266.79 279.49 280.51 286.59 277.14 278.06 315.01 322.47 317.99 309.77 304.96 315.13 333.03 319.65 306.54 335.86 361.69 369.86 350.69 317.62 304.49 280.68 307.26 306.77 307.8 299.25 290.13 288.27 286.4 284.52 282.27 277.96 282.62 308.2 330.91 351.71 353.11 333.27 327.92 339.5 322.57 357.46 333.03 316.85 312.0 312.24 341.64 366.72 385.06 368.11 371.36 359.33 378.49 387.3
